ply
format ascii 1.0
comment Version 2, Copyright 2017, 8i Labs, Inc.
comment frame_to_world_scale 0.179523
comment frame_to_world_translation -45.2095 7.18301 -54.3561
comment width 1023
element vertex 2116
property float x
property float y
property float z
property uchar red
property uchar green
property uchar blue
end_header
170 534 50 99 121 145
173 529 50 107 116 130
172 531 50 93 110 131
174 528 50 94 109 127
175 530 49 96 112 131
173 532 49 101 118 138
173 534 49 113 129 147
174 533 48 109 124 142
174 534 48 112 127 146
169 537 49 126 134 148
168 539 49 134 137 145
170 536 49 99 116 137
170 539 49 87 107 130
168 540 49 121 128 140
168 543 49 114 122 136
170 540 48 64 97 127
170 542 48 77 101 130
172 536 49 92 114 138
172 538 48 97 114 134
174 537 48 91 115 140
172 540 48 72 97 122
172 543 48 108 121 138
187 527 47 38 73 109
190 525 47 38 80 114
191 526 47 29 68 110
177 513 53 115 121 132
177 514 53 95 107 123
179 512 53 118 123 132
179 514 52 86 101 118
176 519 51 140 137 138
178 518 51 126 126 131
176 516 52 110 114 124
177 518 52 138 137 141
180 513 53 116 122 131
180 515 52 103 110 123
182 513 52 131 131 134
183 514 52 136 135 138
180 519 50 135 134 137
182 516 51 123 125 132
182 518 50 119 123 132
181 516 52 125 127 134
177 521 50 134 135 139
176 523 51 112 120 132
178 521 50 131 131 135
178 523 50 91 107 125
177 524 50 86 104 122
176 526 50 49 80 108
178 525 50 87 105 125
179 526 49 73 96 119
181 521 50 85 101 119
182 520 50 108 117 129
182 522 50 103 113 126
181 524 49 89 104 124
180 527 48 75 94 119
182 524 49 98 109 125
182 526 48 51 76 106
183 527 48 62 87 117
186 513 51 112 117 126
187 514 50 99 107 118
184 513 52 128 128 133
185 514 52 116 120 128
184 517 50 93 106 122
184 518 50 97 107 121
186 517 50 100 112 126
187 518 50 70 93 114
188 514 50 106 110 119
189 515 50 112 115 123
190 515 51 95 106 119
189 513 52 104 111 122
191 512 53 100 108 120
189 517 50 105 112 122
188 518 50 105 112 123
190 516 50 94 105 119
190 518 49 73 95 115
191 518 50 98 109 122
184 523 49 118 123 131
185 523 50 121 126 134
187 521 50 77 98 119
186 522 50 104 115 128
185 525 48 66 86 106
185 527 48 45 70 104
187 524 49 42 80 110
188 520 49 110 117 129
188 521 50 106 115 129
189 523 49 89 107 126
191 521 49 79 99 119
191 522 49 31 77 107
189 524 48 78 102 125
190 524 48 56 89 118
177 535 47 104 118 136
178 534 47 82 105 129
181 529 47 86 109 132
182 528 47 40 83 113
182 531 47 45 87 122
181 532 47 49 88 122
181 534 46 57 93 127
182 533 47 43 85 121
182 535 46 45 86 119
177 536 47 105 119 136
177 538 47 116 130 147
178 537 46 102 118 135
179 538 46 69 93 121
177 540 47 101 119 138
177 542 46 94 115 136
178 541 46 116 128 144
178 542 46 108 125 143
180 537 46 56 85 114
180 539 46 93 107 126
183 536 46 81 104 126
183 539 45 108 122 138
181 540 45 137 141 149
181 542 45 120 130 143
183 541 44 94 114 134
182 543 45 102 119 137
184 529 47 78 101 122
184 531 47 51 90 124
187 528 47 49 79 109
187 530 47 87 104 124
184 533 46 60 91 120
184 535 46 100 115 132
187 532 46 111 123 138
187 535 45 94 113 132
189 528 47 72 97 119
189 530 46 115 125 139
191 528 47 75 96 118
191 530 46 98 114 132
188 533 46 105 120 136
189 534 45 75 102 128
190 533 46 70 98 124
191 535 45 26 66 102
184 536 46 102 117 133
186 536 45 93 112 132
186 539 44 93 111 131
184 540 44 87 108 129
185 541 44 91 112 134
186 540 44 94 112 132
186 543 44 96 111 131
189 536 45 57 90 119
189 538 44 73 96 120
190 537 45 57 84 113
190 539 44 96 109 126
189 543 43 92 111 131
191 542 43 142 142 147
189 541 44 84 103 123
190 540 44 108 119 133
176 529 48 75 98 121
176 530 49 92 110 129
178 528 49 75 98 119
178 530 48 78 103 127
176 533 48 78 100 125
177 534 48 93 112 134
181 528 48 61 89 118
176 536 48 121 131 145
165 556 47 86 102 121
166 557 47 81 99 120
167 558 47 102 115 132
170 546 47 77 99 134
169 549 47 111 125 143
170 548 47 58 82 130
170 551 47 146 146 152
172 544 47 125 131 142
172 547 46 125 131 145
174 544 47 120 130 144
175 545 47 116 129 145
175 547 46 102 122 144
173 548 47 120 130 146
173 551 46 111 123 139
175 551 45 113 129 147
168 552 47 137 137 143
168 555 47 107 118 134
170 553 47 143 143 147
170 554 46 132 135 142
168 556 47 82 102 123
169 557 46 106 120 137
169 559 46 119 130 144
171 556 46 98 115 135
170 559 46 112 125 142
173 553 46 111 124 140
173 554 46 104 121 140
174 552 46 116 127 142
175 554 45 114 128 145
172 557 45 110 125 142
173 558 45 121 132 147
174 557 45 132 140 152
174 558 45 127 137 151
160 545 51 99 119 144
161 546 51 101 118 139
163 544 50 127 134 149
162 547 51 116 128 145
160 548 51 127 135 151
160 550 51 114 127 147
163 549 49 103 115 133
163 550 49 100 114 132
164 544 50 118 127 143
165 546 49 106 118 135
166 544 49 112 120 133
166 546 49 111 119 133
167 547 49 104 114 133
165 549 49 100 112 128
165 550 49 99 111 127
166 549 48 107 116 131
167 550 48 118 124 136
160 553 51 106 123 147
161 554 50 110 124 146
162 553 50 99 116 138
162 554 50 99 117 141
161 556 50 104 121 144
160 559 50 95 112 134
163 557 48 91 108 130
163 559 48 91 106 126
165 553 48 100 111 127
165 554 48 99 111 128
167 553 48 121 126 137
164 557 48 94 108 127
168 545 48 109 121 137
168 546 48 99 114 136
170 545 48 124 135 151
168 548 48 80 100 128
164 561 47 88 106 130
165 562 47 111 124 141
167 560 47 137 139 146
166 563 47 127 137 151
165 564 47 103 120 143
165 567 47 114 132 155
167 564 46 104 122 143
166 567 47 116 134 157
163 570 47 114 134 158
162 575 47 88 111 141
164 569 47 116 134 158
164 570 46 122 139 161
165 571 46 139 149 166
167 569 46 136 147 166
167 570 46 151 157 171
164 573 47 105 126 154
164 575 46 105 125 152
167 573 45 136 148 168
167 574 45 130 146 168
168 561 46 123 130 141
168 562 46 110 122 138
170 561 45 117 129 145
170 563 45 130 135 144
169 564 45 123 134 150
168 567 45 97 117 147
170 565 45 102 119 138
170 566 44 107 124 148
175 562 43 128 137 151
173 560 45 111 126 142
173 562 44 114 127 143
175 561 44 121 133 149
173 567 43 146 150 160
174 567 43 149 150 157
173 564 44 113 126 142
173 567 44 140 146 157
168 569 45 136 149 168
169 570 45 135 148 168
171 568 44 126 141 162
171 571 44 163 164 172
168 573 45 136 148 167
168 574 45 140 151 168
170 572 44 157 160 171
170 575 44 147 150 161
173 569 43 140 146 158
174 568 43 148 150 158
174 571 43 133 138 154
172 568 44 136 145 160
173 572 43 143 145 153
173 575 43 168 163 165
175 573 42 165 160 162
175 574 42 166 162 164
160 560 50 92 112 135
161 562 49 93 113 139
162 561 49 80 103 129
162 563 48 95 113 137
161 564 48 96 115 139
160 567 49 94 115 142
162 564 48 98 115 138
162 567 48 95 113 139
165 560 48 92 107 126
161 568 48 89 112 141
160 571 49 98 121 148
162 568 48 98 118 144
162 571 48 107 129 154
161 573 49 102 124 148
161 574 48 99 122 147
162 574 48 96 118 143
177 545 46 92 116 139
177 546 46 92 117 141
179 545 45 121 133 148
179 546 45 121 134 151
176 548 46 109 128 149
177 550 45 101 122 145
178 549 45 114 130 149
179 550 44 116 132 151
180 545 45 118 132 149
180 547 44 118 133 152
182 544 45 99 117 136
182 546 44 92 115 139
183 551 43 108 126 146
181 548 44 101 123 146
181 551 44 104 124 145
182 550 44 116 132 152
176 553 45 97 120 143
176 555 45 107 122 141
178 553 45 121 134 151
178 555 44 120 133 149
178 557 43 121 133 148
179 558 43 125 136 152
177 557 44 118 129 145
178 556 44 122 134 150
180 554 43 101 118 137
182 553 43 123 134 150
183 554 43 102 120 140
181 553 44 105 122 142
180 557 43 109 125 144
180 559 43 110 126 143
182 557 43 121 130 142
182 558 42 110 120 135
183 559 42 119 128 142
184 544 44 91 114 138
184 547 44 97 116 137
187 544 44 111 119 131
187 547 44 127 129 138
184 550 43 105 122 142
186 548 43 123 127 136
187 549 43 114 121 134
187 551 42 98 113 132
189 544 43 87 108 131
189 547 43 100 114 133
190 546 43 111 122 136
191 547 42 121 127 138
189 548 43 113 121 136
189 550 42 118 126 138
191 548 42 135 136 142
190 550 42 129 134 144
184 553 42 105 120 138
184 554 42 106 122 139
185 555 42 110 122 138
187 552 42 103 115 132
187 554 42 103 114 130
184 557 43 110 125 142
185 558 42 104 119 137
186 557 42 112 123 139
186 558 42 110 123 139
188 552 42 106 117 135
188 555 41 115 123 137
190 552 41 144 145 153
190 554 41 133 139 150
191 555 40 130 138 150
188 558 41 125 129 140
190 556 41 113 126 141
190 558 40 148 147 152
176 561 43 121 132 147
177 562 43 130 137 148
179 561 42 120 131 145
179 562 42 122 132 147
176 564 43 154 152 155
176 566 42 157 153 156
178 564 42 146 147 154
179 567 41 126 135 149
180 560 42 109 124 141
180 562 42 117 129 145
182 560 42 110 121 135
182 563 41 104 118 135
181 564 41 121 133 149
181 565 42 124 135 150
180 566 42 132 140 153
182 566 41 115 127 144
176 568 43 145 146 152
176 570 42 126 132 146
179 569 41 127 135 149
178 571 41 139 143 154
179 570 42 121 128 143
177 573 42 160 158 162
178 572 41 143 147 156
179 572 42 134 139 150
179 575 41 127 134 148
181 569 41 127 137 152
181 571 41 104 116 135
182 570 41 121 132 148
183 571 41 123 134 149
181 573 41 102 116 134
181 575 40 101 116 136
183 573 40 108 121 140
189 567 39 117 132 152
191 566 39 118 131 151
184 560 42 115 126 141
185 562 41 120 128 141
187 561 41 108 121 138
187 563 41 107 121 139
184 566 41 114 123 138
186 565 41 115 124 138
187 566 40 126 137 153
188 561 40 120 130 143
188 562 41 117 128 143
189 563 41 134 140 152
191 561 40 149 147 153
191 562 40 151 150 155
188 565 41 113 127 146
188 567 40 121 134 150
191 564 40 147 149 157
185 573 39 120 135 154
187 572 39 134 143 158
187 575 39 124 141 163
188 571 39 150 152 160
191 568 39 110 131 155
191 570 39 115 138 165
189 572 39 165 164 170
189 575 39 133 146 167
190 574 39 171 169 175
184 569 40 111 126 144
184 570 40 109 126 145
186 568 41 114 124 138
186 570 40 114 127 145
184 573 40 118 132 150
187 573 40 119 136 156
142 512 67 117 131 150
143 513 67 141 150 164
143 515 66 85 112 138
141 513 71 60 92 127
141 515 70 104 120 140
142 513 69 77 103 133
143 516 65 72 105 145
142 517 67 65 97 128
142 518 66 40 86 123
143 519 66 115 128 145
141 517 70 140 146 156
141 519 69 75 97 129
142 516 68 126 129 139
141 512 73 91 110 146
141 513 74 91 115 147
141 514 74 84 114 144
142 515 74 119 140 163
143 512 77 145 153 166
141 516 72 86 107 135
141 518 72 139 150 166
142 516 74 122 141 163
143 517 75 54 96 143
142 519 74 115 131 151
143 518 76 64 99 140
142 521 66 102 118 137
143 523 64 117 127 143
142 523 67 118 134 152
141 521 68 76 100 137
141 521 71 91 114 144
141 522 70 83 106 147
142 521 68 70 95 131
142 524 66 125 134 148
143 526 65 108 121 138
142 527 66 154 160 172
141 525 69 132 145 164
141 526 68 153 156 166
141 526 71 104 122 142
141 520 73 120 132 150
141 523 72 134 146 162
142 521 74 153 158 168
142 522 74 135 144 159
141 525 72 75 103 139
142 524 74 102 119 138
143 525 75 155 156 163
142 526 75 114 127 145
143 524 76 157 155 160
143 528 65 125 141 161
142 529 66 111 127 151
143 531 65 65 99 142
143 530 66 70 100 139
141 528 70 130 138 151
141 531 69 165 161 166
142 528 68 122 135 153
142 530 68 136 143 159
142 531 71 160 158 163
142 533 66 87 107 145
143 535 65 149 156 169
141 532 70 163 159 162
142 532 70 162 159 163
142 534 69 113 129 149
142 535 70 97 120 146
142 529 73 158 158 166
143 528 75 79 108 141
142 530 74 135 144 159
143 528 77 71 102 137
143 530 77 82 111 144
142 532 72 150 153 162
142 532 75 138 144 156
142 535 72 114 129 148
142 535 75 160 157 162
143 533 76 159 156 161
142 535 76 158 156 161
143 535 79 136 144 158
143 537 66 129 145 166
143 538 67 124 142 165
142 537 68 124 140 162
142 537 71 93 121 149
142 538 70 120 137 159
143 540 67 121 139 162
143 543 66 111 131 155
142 541 69 131 142 159
142 542 68 118 135 156
142 542 70 130 140 156
142 536 73 120 129 144
142 537 74 134 139 151
142 539 73 99 122 146
142 536 76 161 158 162
143 537 77 150 155 166
142 538 76 144 149 160
143 539 77 81 105 136
142 540 72 120 137 157
142 540 75 88 116 143
142 543 72 134 144 159
142 543 75 121 138 159
142 540 78 80 106 141
143 541 79 99 121 146
142 542 78 99 124 150
143 540 80 128 138 153
143 543 81 65 99 131
144 512 66 160 160 165
144 515 65 113 130 151
144 517 64 89 112 139
144 519 65 147 150 160
145 512 78 64 69 129
145 515 76 85 98 139
147 512 78 80 101 134
147 514 78 113 131 152
145 516 77 98 114 143
145 518 76 84 104 137
146 517 77 72 95 126
146 518 77 87 104 134
148 512 78 124 134 151
149 513 79 107 123 141
149 515 79 141 145 154
149 517 79 144 148 158
149 518 79 132 140 155
144 523 64 121 130 144
144 520 76 52 84 124
145 521 77 95 109 130
145 523 77 151 153 161
147 520 78 82 105 131
146 523 77 146 151 162
147 523 79 77 107 136
145 525 77 119 129 145
144 527 77 92 114 138
145 527 78 130 137 149
146 525 79 137 142 153
148 521 79 72 104 137
150 513 81 60 88 121
151 513 83 89 112 136
150 514 82 71 97 125
151 513 84 81 102 128
150 515 85 56 77 115
151 514 87 140 138 142
148 519 80 79 106 137
149 519 82 121 128 143
150 517 81 80 106 131
150 518 81 73 101 127
149 519 85 148 147 153
150 516 86 88 101 120
151 517 87 88 108 128
150 518 86 136 138 146
151 516 88 54 85 115
151 518 89 77 97 126
151 519 91 99 111 126
147 524 80 97 115 138
147 524 83 97 114 137
146 527 81 152 150 156
147 526 83 123 134 148
147 527 85 106 121 141
149 520 81 86 106 137
149 521 83 128 134 145
148 522 83 93 110 132
149 521 84 135 138 146
148 522 84 112 123 138
149 522 85 114 126 142
149 523 87 71 98 126
148 524 83 74 94 128
148 525 85 58 88 125
149 524 87 58 90 120
148 526 87 71 100 126
149 523 89 103 112 126
151 520 89 112 121 135
151 521 91 133 133 139
150 523 90 139 139 144
151 521 92 116 123 135
151 523 93 80 98 117
149 524 88 73 97 121
148 526 88 66 94 119
149 526 90 79 100 121
150 524 91 118 125 136
150 527 91 89 108 129
151 524 94 82 101 120
150 527 92 71 97 122
151 526 94 64 88 113
152 512 85 78 93 119
152 513 87 131 130 135
153 512 88 103 110 121
153 513 90 80 100 121
152 515 89 84 103 122
153 515 90 66 90 116
154 513 91 56 83 113
153 515 95 101 108 119
155 512 93 49 77 109
155 513 95 52 81 105
154 514 95 65 86 106
152 517 89 72 95 121
153 516 91 114 121 132
153 516 92 132 131 136
153 516 95 98 104 114
152 519 92 85 101 119
153 518 94 98 104 115
152 521 93 84 100 119
152 522 94 77 93 111
144 530 64 92 119 153
144 534 64 139 146 161
144 528 78 111 124 141
145 529 79 152 153 161
145 530 79 122 132 148
144 536 64 123 139 159
144 538 64 114 134 158
145 539 64 111 131 155
145 541 64 125 138 157
145 542 64 126 139 159
144 536 79 95 118 142
145 530 80 118 132 149
146 528 80 159 157 162
146 529 83 88 112 138
146 530 82 97 118 141
147 528 85 121 131 146
147 529 86 150 149 154
147 530 84 103 119 140
147 531 86 155 152 154
145 532 81 72 102 135
145 533 82 78 108 143
145 534 81 85 113 143
145 535 83 121 134 151
146 532 84 111 126 146
146 533 86 113 126 143
146 534 84 78 107 135
146 534 87 70 100 127
148 529 87 151 150 155
147 532 89 89 110 132
147 534 88 78 106 132
147 535 90 101 115 135
149 528 89 101 113 130
149 529 91 83 104 127
148 531 90 95 109 127
149 529 92 76 97 119
149 531 94 130 131 137
150 528 94 70 92 119
150 530 93 92 106 124
148 532 90 96 111 128
148 534 90 108 118 133
149 533 92 143 140 143
149 533 95 95 107 122
149 535 92 136 137 144
149 535 95 105 115 128
144 537 81 138 143 154
145 537 82 155 154 159
144 539 81 151 152 159
145 539 82 159 156 160
145 538 84 140 146 158
146 536 84 145 149 159
146 537 86 88 112 135
146 539 86 91 112 137
144 540 82 160 159 164
145 541 83 117 130 147
144 543 82 61 92 124
145 540 85 95 117 140
145 541 86 114 126 142
145 543 85 110 123 141
146 540 87 122 129 141
146 537 89 72 100 130
147 537 90 74 99 125
146 539 89 142 146 155
147 539 91 104 117 133
146 541 89 139 143 153
147 541 91 95 114 135
146 542 90 102 119 138
147 543 91 98 115 135
147 543 93 101 114 130
148 537 92 77 99 120
149 536 95 106 115 128
148 539 92 96 110 126
149 539 94 105 115 129
148 541 93 100 114 130
149 541 94 97 106 118
148 542 95 114 116 123
128 512 119 158 114 96
128 514 119 160 116 97
130 512 117 165 115 97
131 513 117 169 118 99
131 515 116 173 119 101
128 517 119 147 107 88
128 518 119 149 109 91
131 516 117 167 116 97
131 519 117 169 113 95
131 519 118 164 113 96
133 513 114 161 112 95
133 515 115 171 116 101
135 513 114 152 103 87
135 515 114 160 105 92
133 516 115 171 116 101
135 516 115 172 112 98
135 519 115 186 117 107
132 519 116 175 115 98
135 519 116 173 119 106
129 522 119 144 107 90
130 521 119 151 111 94
131 522 118 153 110 91
129 525 119 128 97 75
131 524 118 155 118 102
130 527 119 123 99 75
132 520 117 175 121 106
132 522 117 157 112 95
133 523 118 154 115 98
135 521 116 190 126 115
135 523 116 152 98 85
133 524 118 161 117 102
133 527 118 118 90 65
134 525 118 149 111 95
134 526 118 138 105 86
128 522 120 141 108 91
128 525 120 125 98 77
129 526 120 125 98 76
137 512 114 150 107 89
137 515 114 161 110 96
139 513 114 142 97 83
136 516 115 167 108 98
136 519 115 174 112 102
138 517 115 166 109 100
138 519 115 164 103 94
141 512 113 142 102 91
140 514 114 144 100 90
142 513 113 142 101 92
143 515 113 142 104 94
140 517 114 146 104 93
140 519 115 143 98 91
143 516 113 145 106 97
142 518 114 128 99 87
139 520 115 151 101 91
137 520 116 161 109 97
137 523 116 146 104 94
138 523 116 154 106 96
136 525 117 163 118 104
136 527 117 137 105 86
138 525 117 132 103 92
139 526 116 147 110 98
141 521 115 118 94 91
142 520 114 112 91 89
143 521 114 111 91 90
143 523 115 88 68 71
141 526 115 101 85 82
143 524 115 89 74 79
143 526 114 92 73 81
140 525 116 117 91 85
143 542 111 90 81 78
128 531 119 135 107 84
131 528 118 129 102 81
130 531 118 133 104 82
128 533 119 139 109 88
129 534 119 136 107 85
130 532 118 133 104 81
131 535 117 127 101 78
133 529 117 128 98 82
132 530 117 129 98 80
134 528 117 121 93 75
134 531 116 122 95 77
135 531 117 123 93 77
133 532 116 124 99 79
132 534 117 126 101 80
134 532 116 124 98 79
134 535 116 120 96 78
128 531 120 134 107 84
128 536 119 133 106 82
129 537 119 132 105 81
129 539 118 127 101 76
131 537 117 128 102 81
131 538 116 126 101 81
130 539 118 126 99 77
129 541 118 126 100 75
129 542 118 126 101 77
131 540 117 119 96 73
130 542 117 122 99 76
131 543 117 119 97 75
135 536 115 116 94 74
135 539 115 119 96 79
132 538 116 123 100 81
133 540 115 118 96 74
134 540 115 119 96 75
134 542 115 118 95 75
132 540 116 118 95 74
132 543 116 117 94 73
137 529 116 125 97 80
137 530 116 124 97 81
139 529 116 128 98 83
136 533 115 120 95 77
137 535 115 115 95 77
138 534 115 110 88 73
136 532 116 118 92 71
139 532 116 122 97 83
140 531 115 122 95 74
142 529 115 94 74 75
142 530 115 94 77 75
140 528 116 123 96 86
140 533 115 117 92 81
140 534 115 115 89 82
143 533 113 72 72 76
142 534 113 84 77 76
142 535 114 87 78 77
137 537 115 113 93 76
137 538 114 115 94 77
139 536 114 106 86 71
139 538 114 104 86 73
137 541 114 116 96 79
137 542 114 113 94 79
138 540 114 110 92 78
139 542 113 107 90 76
140 536 114 104 85 71
141 538 113 93 81 76
143 536 112 75 73 76
142 539 112 85 78 76
140 541 113 101 85 74
140 542 112 100 86 76
142 540 112 89 80 76
142 543 112 97 84 77
150 513 111 111 98 96
151 515 111 114 107 105
151 522 98 64 81 98
151 520 101 123 120 121
151 521 102 126 123 124
151 523 101 98 105 115
151 524 96 67 88 108
151 524 99 89 100 115
151 527 96 79 93 111
151 526 98 89 102 118
151 524 101 94 104 117
151 524 103 106 111 120
150 527 100 89 99 113
151 526 102 99 108 121
151 522 104 104 106 113
151 524 105 99 105 115
151 526 111 53 67 84
154 513 97 61 84 104
154 513 98 64 85 104
155 513 99 62 82 101
154 514 98 67 87 106
153 515 100 61 83 103
153 515 103 72 89 107
155 512 100 91 98 108
154 513 103 92 99 109
153 516 97 96 103 113
153 516 99 70 86 103
153 518 96 120 119 123
152 519 99 91 98 108
153 516 100 73 87 103
152 517 102 98 105 116
152 518 101 108 110 117
152 519 102 124 121 122
153 515 105 65 80 96
154 513 104 114 114 119
154 513 107 101 103 109
153 512 109 85 87 94
152 513 111 107 100 101
153 515 108 80 88 99
152 515 111 112 107 106
154 513 108 87 92 101
152 517 105 73 88 106
153 516 107 71 86 105
152 519 104 102 109 119
153 518 106 68 85 106
153 517 108 69 82 102
153 517 110 100 102 109
153 519 109 81 92 107
153 519 110 74 85 100
152 521 97 89 98 110
152 522 96 83 96 110
152 520 100 107 107 113
152 520 107 103 107 117
152 523 105 113 113 119
153 520 108 92 99 111
153 520 111 70 80 95
153 523 108 123 118 118
153 523 110 96 97 103
152 524 106 102 106 114
153 525 107 81 91 103
152 527 106 99 108 120
153 524 109 108 106 110
153 524 110 98 98 103
153 526 109 85 92 101
152 527 111 65 76 89
145 512 113 136 100 93
145 515 113 131 103 93
147 512 112 129 100 94
147 514 113 125 99 92
145 517 113 124 101 94
144 519 114 125 101 96
147 517 113 110 98 92
148 512 112 121 97 91
148 515 112 118 101 95
150 514 112 120 106 102
148 517 113 108 99 95
148 519 113 96 94 95
150 517 112 106 101 100
150 519 113 86 88 93
145 520 114 107 97 95
145 523 114 73 72 79
146 521 114 86 84 87
146 522 114 72 73 80
145 525 114 78 72 82
145 526 114 74 69 81
147 525 113 59 67 81
148 520 113 83 84 88
148 523 113 60 69 82
151 520 112 63 73 84
151 522 112 66 76 88
149 524 113 57 69 84
148 527 112 47 61 79
150 525 112 61 72 85
151 526 112 49 64 82
152 520 112 63 74 88
152 523 112 76 83 93
150 529 96 98 109 123
150 529 98 110 115 124
150 531 97 100 109 122
150 528 100 94 101 111
150 529 102 104 105 111
150 530 101 105 106 111
150 531 102 129 124 125
149 532 97 96 106 119
149 533 98 101 107 116
149 535 97 101 109 121
150 532 96 87 100 115
149 533 100 130 128 131
149 535 101 129 126 129
150 533 101 130 126 128
150 534 102 125 122 126
146 534 111 58 70 83
151 528 104 82 91 102
151 531 105 118 117 121
150 528 111 61 73 86
151 531 109 78 84 94
151 530 111 72 80 90
151 532 105 121 120 124
151 533 107 110 110 116
150 534 106 99 99 102
151 534 107 110 109 113
149 532 111 62 73 85
149 535 109 76 82 91
150 532 109 76 83 93
151 533 108 92 96 104
151 534 108 101 102 108
149 536 98 112 116 124
149 538 97 112 114 121
149 539 98 130 128 132
149 537 101 123 121 125
149 538 100 117 116 120
149 538 103 115 116 122
150 538 103 107 108 113
149 541 97 135 131 132
148 543 96 129 126 128
148 543 99 134 131 133
149 541 100 133 131 134
149 541 103 109 106 108
149 543 101 132 130 133
150 540 103 125 122 124
145 537 111 67 71 79
146 536 111 62 71 81
147 537 110 61 69 79
147 538 110 60 67 76
145 541 111 83 80 82
145 543 110 90 84 82
147 541 110 81 81 85
149 537 107 98 98 102
150 537 104 106 106 111
150 537 107 103 102 106
150 538 106 111 109 112
148 537 109 67 72 81
148 537 110 65 73 82
148 538 110 61 68 77
150 541 105 108 107 111
150 541 107 92 92 96
151 543 104 114 113 117
151 543 107 86 87 92
149 541 109 80 81 86
149 543 109 83 83 85
150 543 108 85 85 88
152 528 106 92 102 115
152 530 105 99 103 111
152 528 108 95 102 113
153 528 109 76 85 96
152 530 109 81 87 97
152 532 108 72 82 94
145 529 113 72 72 82
144 531 113 77 75 82
146 529 113 68 74 83
146 530 113 69 76 86
144 532 113 68 71 79
144 534 112 66 72 81
146 532 112 59 71 83
148 528 113 55 64 80
148 531 112 58 71 85
144 538 112 73 74 78
143 545 67 130 140 155
142 545 69 126 137 153
142 544 71 116 133 153
143 546 69 132 140 153
142 547 70 113 128 148
143 550 67 123 137 156
143 549 69 128 140 159
143 549 71 106 128 153
143 550 70 111 131 156
142 544 73 118 134 152
142 545 74 97 123 150
142 547 73 104 129 156
142 544 76 118 136 157
142 544 79 116 136 159
142 546 76 97 124 151
142 546 79 110 132 156
142 548 72 103 127 152
142 548 75 88 122 153
142 551 73 118 135 155
142 551 74 114 133 156
142 549 77 83 120 152
143 548 79 101 128 156
142 551 77 84 120 150
143 550 79 91 122 151
143 553 68 127 142 163
143 553 71 113 133 156
143 554 71 123 140 161
143 557 70 113 134 157
143 552 73 147 152 163
142 553 75 130 141 157
143 555 72 134 142 156
143 555 75 153 155 164
142 552 78 86 120 151
142 554 76 114 133 155
143 555 77 101 125 152
143 556 72 131 139 154
143 556 75 151 154 163
143 559 73 123 137 157
143 556 76 117 131 150
143 556 79 94 119 146
143 559 76 145 149 159
143 559 79 122 138 157
143 546 80 101 128 154
143 548 81 98 127 154
143 550 80 95 124 152
143 551 82 99 126 153
143 553 81 102 126 151
143 554 80 98 125 151
143 554 83 117 136 158
143 557 80 119 138 160
143 557 83 88 117 145
143 558 82 96 122 148
143 557 84 91 118 144
143 559 85 87 109 134
143 560 77 158 159 168
143 561 78 137 147 162
143 562 78 110 129 150
143 564 79 118 136 156
143 560 81 83 110 135
143 561 82 113 131 151
143 563 81 121 138 157
143 560 84 107 127 149
143 562 85 113 124 140
143 565 80 114 133 154
143 565 83 147 150 159
143 566 82 143 148 159
143 564 85 145 148 158
143 566 84 160 158 163
143 566 87 151 150 156
143 567 88 150 147 151
143 569 83 138 140 150
143 568 86 152 152 158
143 570 85 138 143 153
145 544 64 88 115 145
144 545 66 142 150 165
145 547 64 113 128 148
144 549 65 157 158 167
144 548 66 139 147 160
145 551 64 130 138 154
144 551 67 134 146 164
144 552 66 100 121 145
145 554 64 158 157 163
144 554 67 118 135 157
146 552 64 128 135 151
144 554 68 119 136 157
144 556 66 120 136 159
145 557 66 86 110 138
145 558 66 139 147 161
146 557 64 128 136 152
144 556 68 124 140 163
144 557 71 110 132 158
144 558 70 118 139 163
144 559 73 117 134 156
144 545 82 98 125 152
144 547 82 93 123 152
145 545 85 107 127 149
145 546 84 91 120 148
145 546 87 96 120 143
144 549 82 92 122 150
144 549 84 84 117 147
145 548 86 86 117 146
144 550 85 79 113 144
144 551 87 96 121 146
145 545 88 98 119 141
146 545 88 99 120 142
146 545 91 112 125 141
146 547 88 90 110 131
146 547 91 110 121 136
147 545 92 104 116 131
147 546 93 106 112 122
147 547 94 128 126 129
145 550 88 87 116 143
146 549 89 92 116 141
147 548 91 101 110 124
146 551 90 110 124 143
147 549 93 139 136 140
147 550 92 137 137 142
147 550 95 139 135 138
148 544 95 117 118 124
144 553 83 110 132 156
144 553 85 87 119 147
145 552 87 62 98 131
144 554 86 91 119 146
144 556 85 89 116 142
144 557 87 105 122 143
144 559 87 134 137 148
145 552 90 103 118 138
145 554 89 98 115 134
146 552 91 124 129 138
146 553 92 129 130 136
147 552 94 135 133 137
146 555 92 136 135 140
147 554 94 126 126 132
144 556 89 115 123 135
145 556 90 134 135 141
144 558 89 147 147 153
145 558 90 144 142 147
146 557 91 139 136 140
147 556 93 130 130 135
147 557 95 130 129 133
147 558 93 139 135 137
147 559 95 140 136 138
145 561 67 133 143 160
146 560 65 170 168 174
146 562 65 128 144 164
146 563 66 103 126 157
145 560 68 126 140 159
144 561 70 152 159 173
145 563 68 166 167 177
145 563 70 158 161 171
147 565 64 111 132 160
146 565 67 118 137 161
146 566 66 113 132 158
147 567 66 134 145 162
145 564 71 108 123 143
146 564 68 164 166 175
146 566 69 112 130 155
146 567 70 146 153 168
144 561 73 106 128 153
144 562 73 108 129 156
144 562 75 128 142 161
144 563 77 105 128 153
145 565 73 149 157 170
145 565 74 135 148 167
144 566 75 110 132 156
145 567 75 105 130 155
144 564 78 97 120 145
144 567 76 117 136 159
144 567 79 117 135 156
146 568 67 122 137 157
147 570 65 110 128 150
146 568 68 123 139 159
146 568 70 149 157 174
147 570 68 148 156 171
146 570 71 95 121 148
147 572 67 155 163 179
147 573 69 102 126 152
147 573 71 139 152 171
147 574 70 140 153 172
148 570 64 115 131 152
148 572 64 99 120 148
148 573 66 140 152 170
149 574 64 106 125 147
148 575 67 115 136 161
145 569 72 103 127 152
145 569 75 127 143 162
145 571 75 124 140 161
146 571 72 117 138 162
144 569 76 131 146 166
144 568 78 121 138 160
145 570 76 123 139 159
144 570 79 153 154 163
145 572 75 121 138 160
146 573 73 131 148 170
146 574 73 126 143 164
146 574 75 127 140 158
145 573 76 137 147 162
145 573 78 157 157 164
145 574 78 155 155 163
146 575 76 146 149 160
144 561 87 143 145 152
144 563 86 140 144 155
144 564 87 141 143 152
144 561 88 145 146 152
145 560 91 142 140 144
144 563 88 130 133 143
145 563 90 132 134 143
145 563 92 127 127 132
146 560 94 144 139 141
146 562 93 137 136 139
146 563 94 123 123 128
144 565 89 143 142 148
145 564 91 123 125 133
144 566 91 139 138 142
145 564 92 130 130 135
146 564 93 127 127 132
146 565 95 128 129 135
146 566 94 134 131 135
147 567 95 133 132 136
144 569 82 140 143 153
144 571 81 155 155 161
144 569 87 140 141 148
144 570 86 131 136 146
144 572 81 156 155 162
144 572 83 157 155 161
144 575 81 148 148 155
144 574 83 156 155 160
144 573 84 155 153 159
144 573 87 142 140 146
144 575 85 150 148 152
145 574 87 147 143 146
144 569 88 142 141 147
145 569 90 138 137 141
145 570 89 127 127 134
146 569 91 141 138 141
146 568 93 143 140 144
146 569 94 142 140 143
146 570 93 131 131 136
147 570 94 141 138 141
145 572 88 126 128 135
145 573 90 137 137 142
146 572 91 123 125 132
146 575 89 143 139 142
147 575 90 144 140 143
147 573 93 129 128 131
147 574 93 131 128 128
148 573 95 91 64 73
148 574 95 81 33 52
135 549 111 119 97 78
135 552 111 117 94 75
134 555 111 120 95 76
134 556 111 120 95 76
134 558 111 119 94 73
135 559 111 119 93 72
136 548 111 117 96 78
136 550 111 118 96 78
138 548 111 116 94 76
139 551 109 113 93 76
140 545 111 105 88 76
141 546 111 104 88 77
143 545 111 101 86 79
143 546 111 102 86 78
141 548 110 106 90 79
140 551 110 111 93 78
143 548 110 104 88 79
143 551 109 103 89 79
136 552 110 118 94 76
137 554 109 118 94 75
139 553 109 115 94 76
139 554 108 115 93 75
137 556 109 117 94 75
137 559 109 117 94 74
138 557 108 117 94 77
138 559 108 115 93 73
140 553 109 113 92 75
140 555 108 114 93 76
142 553 108 107 90 76
142 554 108 108 90 75
142 559 107 109 91 78
141 556 108 113 93 77
141 559 108 113 93 77
142 558 108 111 92 79
129 544 117 120 96 72
129 545 118 120 97 73
128 547 118 121 99 76
131 545 116 118 96 73
131 547 116 117 95 72
131 550 115 115 93 70
128 549 117 119 97 75
128 550 116 118 97 74
129 551 116 118 95 73
130 551 116 116 94 72
133 545 115 118 96 74
133 547 114 117 94 71
134 545 114 119 96 76
135 546 113 119 96 77
132 544 116 119 97 77
133 548 114 116 94 73
132 551 114 115 92 69
135 548 113 119 95 75
134 551 113 116 93 70
129 555 115 119 97 73
131 553 114 116 94 71
130 555 115 118 95 71
128 553 116 118 95 73
129 554 116 120 97 75
129 557 114 120 96 72
128 559 115 121 96 72
130 556 114 118 95 70
130 558 113 120 96 71
130 558 114 121 96 71
133 552 112 117 95 72
132 553 114 116 93 70
133 555 112 119 95 75
132 556 113 119 95 74
132 558 112 119 96 72
136 545 113 116 95 78
136 546 112 118 96 77
138 544 112 110 91 75
139 545 112 108 90 75
140 544 112 104 88 77
130 563 111 124 97 75
129 566 111 125 99 72
131 565 110 123 97 72
131 566 110 122 96 73
133 561 111 121 97 71
133 563 110 123 97 72
135 561 110 120 95 74
135 562 110 121 95 74
133 564 110 123 97 73
133 566 110 122 97 73
134 565 110 123 98 74
135 566 109 121 97 73
129 568 111 123 98 71
128 571 111 123 99 73
130 569 110 121 97 72
130 570 110 121 96 72
128 572 111 122 98 72
129 575 109 121 97 72
130 572 109 121 96 73
130 573 110 121 97 74
131 575 109 121 97 72
132 569 110 119 94 72
133 571 109 120 95 71
135 569 109 121 95 72
135 570 109 120 95 71
132 573 108 121 96 73
132 574 108 120 96 73
134 572 108 120 96 73
134 575 108 119 95 73
137 561 109 116 93 75
138 560 108 115 93 73
138 563 108 115 94 74
139 566 107 112 91 73
137 565 108 118 95 75
137 566 108 118 95 75
139 565 108 113 92 73
141 560 107 110 91 75
141 563 107 104 86 69
142 562 107 100 82 67
143 563 107 93 77 65
140 564 107 109 90 72
140 567 107 106 89 72
142 564 107 97 81 68
143 565 106 85 79 78
143 567 106 82 81 83
139 569 106 108 90 73
139 570 107 112 91 74
137 568 108 118 94 74
137 571 108 120 95 74
137 573 107 118 94 73
138 572 107 117 93 75
138 574 107 116 92 73
136 572 108 121 96 73
140 569 106 105 89 74
141 570 106 100 87 76
142 568 106 94 85 80
142 571 105 97 85 77
141 573 105 102 87 74
140 575 105 105 86 72
142 572 105 99 86 77
142 575 105 98 86 79
129 560 113 123 98 71
129 560 114 123 97 69
129 562 113 126 100 72
131 560 112 123 99 73
128 564 112 125 98 73
129 565 112 126 100 73
133 560 112 120 95 71
147 547 97 119 119 123
147 548 96 130 128 131
147 548 99 127 126 130
147 551 97 139 135 138
148 544 98 129 127 130
148 546 97 121 122 127
148 544 101 128 126 129
149 544 103 124 122 125
148 547 100 122 120 123
149 547 103 112 111 115
148 548 98 130 128 132
148 551 97 139 135 137
148 548 100 119 117 121
149 548 103 115 114 117
148 551 100 126 123 126
149 551 103 96 97 102
144 544 111 94 85 80
145 545 110 97 88 83
147 545 109 95 89 87
146 547 109 97 89 85
147 546 110 96 89 86
144 548 110 102 89 81
145 551 108 100 89 82
147 549 109 98 90 86
147 550 109 97 89 83
151 544 105 102 103 107
151 546 104 87 88 92
148 545 109 93 88 87
149 546 109 91 87 87
150 545 108 88 86 88
150 546 109 87 85 86
149 551 107 96 89 87
151 549 104 101 101 105
151 549 107 93 89 89
151 551 104 95 93 95
151 550 106 96 93 94
148 549 108 96 90 88
148 551 108 98 91 87
151 548 108 94 91 93
147 555 96 131 130 134
147 557 97 127 127 132
147 558 96 134 132 135
147 558 99 116 116 121
148 553 97 136 133 135
148 554 97 133 132 135
148 555 99 125 123 126
149 552 102 117 115 119
148 554 101 126 123 126
149 554 102 112 110 113
150 554 103 94 91 92
148 557 99 119 118 123
149 556 101 107 104 106
148 558 101 93 90 95
149 558 102 70 55 66
150 557 103 69 36 46
150 559 103 65 41 48
147 554 107 97 87 80
145 552 108 102 91 83
145 555 108 102 90 81
146 554 108 100 89 80
144 558 107 102 89 80
146 556 107 101 90 82
146 558 106 93 81 73
144 556 108 105 92 81
148 554 107 96 87 81
150 552 104 96 94 96
151 553 105 92 89 90
151 552 106 91 88 88
151 554 105 94 91 92
148 552 108 99 90 85
148 557 107 97 89 84
149 558 105 80 60 59
150 556 105 88 82 80
151 557 104 77 57 57
152 544 105 100 100 105
152 545 107 89 88 91
152 547 106 94 92 95
152 548 105 87 85 87
146 561 96 144 139 141
147 561 98 138 135 138
147 562 97 133 132 135
147 563 99 107 103 106
147 563 103 55 74 92
147 565 97 124 126 132
147 566 96 122 123 129
147 567 98 111 107 106
147 567 103 59 79 98
149 560 101 68 56 65
149 561 102 55 46 55
148 563 101 63 60 68
148 565 99 81 77 83
148 564 100 60 51 59
148 565 102 54 75 92
148 566 102 58 76 96
144 561 107 87 69 59
144 562 106 80 66 59
147 560 105 70 43 46
147 560 106 74 50 49
147 562 105 61 67 74
144 564 106 79 78 81
145 567 104 61 73 84
146 565 105 63 77 91
147 566 104 53 77 96
148 561 105 66 51 53
147 569 97 105 87 85
146 571 103 61 76 90
144 575 103 71 81 93
146 573 103 66 83 98
146 574 102 58 80 100
148 569 97 93 54 61
149 569 99 69 66 80
148 570 98 76 48 60
148 568 100 58 67 81
149 569 100 60 75 91
148 569 103 59 81 99
149 571 101 62 86 106
148 573 96 88 62 75
149 572 99 61 78 94
149 575 96 68 83 96
149 575 99 55 81 103
149 572 101 64 88 108
148 575 100 53 82 104
144 569 105 74 78 84
144 570 105 78 76 78
146 568 104 60 76 92
144 572 105 87 85 87
144 574 104 80 83 89
151 567 127 52 58 86
152 566 127 52 60 89
154 565 127 34 59 101
155 566 127 67 83 108
152 568 127 52 58 87
152 570 127 47 58 88
154 568 126 64 71 98
154 571 125 44 57 90
152 572 127 43 56 88
153 574 127 41 56 92
155 573 124 38 53 87
155 574 124 35 49 85
154 574 127 37 51 88
156 568 126 49 74 98
157 569 127 46 64 94
157 571 124 30 52 88
158 570 127 33 51 88
157 575 121 36 53 89
157 574 123 30 48 88
158 575 121 34 50 89
159 574 123 38 53 90
156 575 126 33 50 89
158 573 124 30 49 87
158 572 127 37 51 92
159 575 125 35 51 91
159 575 127 34 50 90
160 575 123 38 52 91
159 585 47 111 133 162
159 588 47 70 109 150
159 591 47 106 129 158
150 576 58 121 137 160
151 578 56 153 157 170
150 578 59 90 117 147
149 576 61 107 128 154
149 577 63 93 117 143
150 576 60 105 126 153
150 578 61 114 134 157
151 580 56 110 129 152
150 580 59 101 124 149
151 582 56 106 130 156
150 583 59 114 135 160
150 580 60 105 127 152
150 581 62 122 140 162
150 583 61 113 133 156
151 584 56 104 127 152
150 585 59 112 133 158
151 587 56 97 122 150
151 587 58 102 123 147
150 585 61 113 131 154
150 586 60 96 118 142
150 586 63 155 156 166
151 589 56 68 104 136
151 589 58 101 122 146
151 591 57 104 127 153
150 588 60 122 135 153
150 588 63 154 153 159
150 591 60 137 139 148
150 591 63 168 167 174
153 576 53 124 137 156
152 577 55 133 145 163
152 578 54 131 143 162
153 579 54 94 120 148
155 576 52 113 131 156
154 579 53 68 108 142
154 582 51 110 126 147
155 583 51 143 150 164
152 581 54 113 133 158
153 583 53 117 134 156
153 582 54 113 134 159
154 581 53 91 121 151
156 576 50 103 128 156
157 577 50 95 125 157
157 578 50 92 123 155
159 576 49 105 134 164
158 578 48 98 130 161
159 579 48 95 124 158
156 581 50 89 115 144
157 582 49 106 125 151
158 580 49 93 120 152
159 581 49 105 126 154
159 582 49 122 137 161
152 580 56 114 133 156
154 585 51 113 131 154
154 586 51 102 125 150
153 585 52 105 127 153
152 585 55 97 119 144
153 587 52 97 123 150
152 587 55 98 124 153
154 586 52 101 125 151
155 589 50 95 120 148
153 588 52 97 123 150
152 588 55 94 121 150
153 590 53 102 125 151
152 591 55 109 129 154
154 590 52 97 121 147
157 585 48 111 133 159
156 587 49 103 126 154
156 587 50 101 124 151
158 586 48 106 130 160
157 588 48 97 120 150
156 591 49 104 125 148
158 588 48 83 113 146
152 585 56 87 112 138
158 593 47 106 126 152
159 594 47 100 122 148
159 597 47 127 141 161
158 600 47 135 144 158
158 603 47 109 131 158
159 604 47 123 142 168
159 607 47 120 137 161
151 592 58 117 131 149
151 594 57 157 156 163
151 595 58 158 158 166
150 593 61 152 154 162
150 593 63 143 151 166
151 594 60 154 156 165
150 595 63 132 147 167
151 596 58 152 156 168
151 598 57 143 151 166
151 599 58 130 143 161
151 597 60 128 141 161
150 598 61 138 149 166
150 598 62 146 155 172
151 600 57 122 139 161
151 601 59 126 142 164
151 603 58 104 132 161
151 601 60 124 140 161
150 601 63 112 133 158
151 603 61 87 124 157
151 603 62 103 130 158
151 605 59 100 134 166
151 605 61 94 130 164
151 605 63 139 150 168
151 606 62 114 138 165
154 593 51 121 135 153
155 594 50 118 133 151
152 592 55 124 137 156
153 594 53 137 142 153
152 595 55 148 151 160
154 594 52 130 137 150
155 597 50 122 134 153
153 596 53 164 161 167
152 597 55 161 162 171
152 598 54 163 163 170
153 599 54 141 146 158
156 592 49 118 135 154
156 593 50 124 139 158
158 592 48 99 122 146
156 597 50 124 135 151
156 598 50 140 145 157
152 595 56 142 145 154
154 600 51 156 157 165
154 603 51 126 139 158
152 600 54 120 136 158
153 601 54 116 137 162
152 602 55 103 131 160
154 600 52 149 154 165
154 605 51 101 126 153
154 607 51 94 124 155
153 604 53 106 132 160
152 605 55 110 136 163
152 606 54 103 132 163
153 607 55 114 139 168
154 607 53 97 129 160
156 602 49 136 143 156
158 600 48 138 144 156
156 604 50 113 131 153
157 607 48 112 133 157
152 600 56 119 137 159
152 604 56 113 136 163
152 606 56 111 138 167
152 606 59 100 134 167
159 608 47 112 130 153
151 608 62 156 162 176
151 610 63 152 152 158
155 609 50 99 128 157
155 611 51 79 110 146
153 608 55 115 140 170
153 610 55 127 146 170
154 609 52 92 126 160
154 611 53 96 126 159
155 614 51 105 129 157
153 613 55 74 107 138
154 612 52 100 128 158
154 612 54 89 121 153
155 614 52 108 133 160
156 609 49 99 128 158
156 609 50 100 128 159
157 611 48 120 138 163
158 609 48 103 127 155
156 612 49 111 133 161
156 612 50 104 129 158
156 615 50 133 141 156
159 612 48 146 150 163
158 615 49 158 159 166
152 609 56 119 143 170
152 609 59 95 128 160
153 611 56 126 145 169
152 611 59 144 155 172
152 609 62 166 169 181
152 610 62 151 155 166
153 613 56 98 123 150
152 613 59 132 149 172
153 615 56 110 136 164
153 615 59 89 114 141
152 612 62 141 136 140
152 614 61 107 119 139
152 614 62 110 81 102
155 617 51 160 162 172
153 619 55 131 140 155
155 617 53 134 145 162
154 619 53 155 158 169
154 618 54 145 152 166
153 621 55 148 153 165
155 621 53 155 158 169
155 622 52 155 158 169
154 623 54 166 165 172
157 617 49 164 163 172
157 616 50 161 160 168
156 619 51 171 170 177
159 616 48 164 164 172
159 618 48 166 164 171
156 621 51 160 162 174
157 622 50 162 162 171
159 620 49 178 175 181
159 623 49 163 163 171
156 622 52 159 161 171
153 617 57 120 138 160
153 618 56 121 138 159
153 618 59 125 143 165
153 617 60 104 125 148
152 617 63 104 138 170
153 619 60 127 143 165
152 619 63 96 124 151
153 621 56 147 153 166
153 621 59 127 138 154
152 622 59 148 154 167
153 623 58 164 164 170
153 621 61 119 137 158
153 620 62 128 143 163
152 622 62 118 137 160
155 625 53 176 173 180
155 624 54 175 173 179
155 626 54 178 175 180
155 628 54 156 157 166
155 630 55 145 147 159
157 626 51 167 165 171
158 625 50 155 156 167
158 626 51 162 161 168
159 627 51 169 165 170
157 625 52 157 156 164
157 627 52 169 166 172
159 628 51 171 167 171
159 630 50 174 168 170
157 628 52 168 166 172
156 630 53 165 165 174
157 631 53 150 152 162
153 624 56 167 165 171
152 624 59 158 159 168
153 626 56 166 165 172
153 627 58 159 160 168
152 624 61 157 159 168
152 624 63 123 138 157
153 626 60 148 152 163
152 626 63 160 161 169
153 628 59 160 159 167
153 631 58 170 167 173
154 629 57 164 163 171
155 631 56 164 164 171
153 629 60 162 161 167
153 628 62 165 163 170
153 631 60 167 166 172
153 630 63 162 161 168
155 634 55 175 173 179
159 635 51 123 46 79
157 633 53 169 167 173
156 634 54 176 172 177
157 635 54 179 171 169
158 634 53 163 153 152
157 636 53 155 118 112
157 637 54 146 102 103
157 639 54 99 85 108
159 637 52 115 67 82
159 639 53 98 132 161
153 633 59 163 162 170
154 633 56 177 174 179
154 633 58 174 171 177
155 635 56 176 174 182
153 632 60 155 156 165
153 632 63 155 158 168
153 635 60 160 160 170
153 635 63 159 159 168
155 637 56 148 149 158
154 637 59 171 170 177
154 638 58 151 155 167
155 639 58 158 156 159
153 636 62 164 164 171
153 638 61 176 173 178
153 639 63 173 170 177
156 638 56 162 155 154
161 579 47 108 129 162
162 578 47 119 138 165
160 580 47 102 125 156
160 582 47 123 140 165
161 583 47 115 133 160
163 580 46 134 149 173
162 583 46 128 140 163
164 576 47 112 130 153
164 579 45 123 140 164
165 578 46 125 140 160
167 577 45 127 139 158
167 578 45 138 146 160
165 581 45 173 170 176
165 582 45 176 172 176
166 581 44 174 169 172
166 582 45 179 173 174
160 585 47 107 130 160
160 587 47 76 110 153
163 585 45 130 140 165
163 586 45 115 132 159
160 588 47 79 111 156
160 590 46 100 124 159
161 591 46 119 135 161
162 588 46 118 135 164
163 591 45 164 163 171
164 584 45 160 162 173
164 586 44 118 131 155
165 587 44 113 128 154
166 586 44 137 144 169
166 591 43 173 171 176
164 589 44 152 154 164
164 590 45 160 161 168
166 588 44 120 132 156
169 579 43 153 155 164
170 578 43 144 148 160
168 576 45 137 147 163
168 579 44 160 159 165
168 581 43 166 163 167
169 582 43 165 163 170
171 580 43 135 142 153
171 583 42 153 154 162
172 576 43 166 162 166
173 577 42 164 161 164
173 579 42 145 146 156
175 579 41 149 150 157
172 580 42 137 143 155
172 583 42 163 162 168
175 581 41 156 156 163
175 582 41 159 158 165
168 585 43 151 155 171
169 586 43 155 158 170
171 584 42 165 164 170
171 586 42 173 170 174
169 588 43 157 161 175
169 590 42 148 156 172
170 588 42 175 172 178
171 591 41 121 140 167
173 585 41 177 172 175
172 587 41 180 174 176
173 586 42 178 172 175
174 586 41 178 174 177
172 589 41 153 159 174
173 590 41 122 140 166
175 588 40 137 148 169
174 591 41 119 139 166
160 576 48 108 133 161
160 578 48 93 121 158
160 581 48 115 134 161
160 592 46 120 137 161
161 595 45 122 140 163
162 592 45 157 159 169
162 595 45 138 151 170
161 597 45 123 142 166
161 598 45 104 129 156
162 596 45 132 148 171
163 597 45 125 146 172
166 592 43 172 171 179
166 595 43 133 153 180
164 593 44 179 176 180
164 595 44 146 158 177
166 594 44 149 159 177
166 598 43 127 144 169
164 597 44 129 149 174
164 599 45 128 146 171
160 600 46 124 144 170
160 603 46 120 141 170
163 600 45 130 148 174
163 603 45 126 143 167
160 606 46 123 140 163
161 607 46 129 139 156
162 606 45 126 137 158
162 607 46 137 143 157
167 603 43 168 166 174
165 600 44 125 139 164
165 602 44 151 156 173
166 603 44 166 165 173
164 605 45 167 167 178
164 607 45 165 165 177
166 605 44 171 169 175
167 606 44 175 174 182
169 592 43 150 162 181
169 594 42 137 151 177
171 592 42 138 153 178
170 595 42 116 130 153
169 596 42 120 136 161
169 599 42 160 160 171
171 597 42 168 166 173
172 592 41 111 134 160
172 593 42 102 124 155
174 592 41 121 139 165
175 593 41 108 125 149
175 594 40 122 136 156
173 596 41 167 166 173
173 599 41 175 175 184
174 597 41 186 181 184
175 598 40 182 179 189
169 600 42 160 160 172
169 602 42 162 163 172
170 601 42 168 167 176
171 602 42 177 174 183
169 604 43 166 165 173
169 607 43 181 178 184
171 605 42 185 181 188
171 606 42 182 177 183
173 601 41 187 185 194
173 603 41 129 133 152
174 601 41 189 187 196
175 602 41 186 183 191
173 604 42 166 164 174
173 607 42 189 183 190
174 606 41 193 190 196
182 579 39 69 98 126
181 583 39 75 104 138
182 582 39 66 98 130
177 576 41 152 153 164
176 578 41 145 148 157
176 579 42 146 148 155
178 578 41 121 130 145
179 579 41 105 119 136
176 582 41 153 156 165
177 583 41 135 142 157
179 580 40 96 113 135
179 583 40 92 116 144
181 577 40 92 109 129
182 576 40 104 118 138
182 579 40 80 104 128
181 581 40 81 105 131
182 580 40 74 102 129
179 589 39 93 117 152
181 584 39 66 102 139
181 587 39 59 97 143
182 586 39 72 104 141
180 589 39 75 105 151
181 590 39 83 112 153
183 589 39 116 132 157
176 584 41 156 158 167
176 586 40 137 145 163
178 584 40 117 130 150
178 587 40 104 124 150
177 588 40 128 141 166
177 590 40 145 157 176
179 589 40 105 125 155
180 585 40 67 103 140
184 579 39 102 118 141
187 576 39 131 145 163
187 579 39 168 168 175
184 582 39 103 121 145
186 581 39 151 153 162
186 582 39 160 160 166
188 576 39 121 140 164
188 578 39 139 150 168
189 579 38 128 144 165
191 576 39 142 153 171
191 578 38 117 138 165
189 580 38 143 152 167
189 583 38 174 171 175
190 582 38 166 166 174
184 577 40 89 108 133
185 585 39 146 154 171
186 584 39 175 171 175
186 587 39 148 158 174
185 588 39 163 167 176
185 590 39 87 112 141
187 588 39 113 134 164
187 591 38 141 157 178
189 584 38 162 164 173
189 586 38 109 133 160
191 584 38 113 132 156
191 587 38 131 148 168
189 588 38 122 143 169
189 590 38 115 138 164
191 589 38 122 143 166
179 592 39 92 127 158
179 595 39 144 160 185
180 593 39 125 148 175
181 594 39 115 143 172
183 593 39 130 148 171
180 596 39 144 161 185
180 599 39 104 125 162
183 596 39 135 156 187
183 599 39 148 167 196
176 594 40 104 131 162
178 593 40 138 159 184
176 597 40 184 186 196
177 598 40 178 181 193
178 598 40 143 155 176
180 600 39 134 149 180
181 602 39 153 166 195
183 601 39 147 170 202
181 604 39 141 148 169
183 606 39 193 191 201
177 600 40 172 169 178
177 603 40 191 188 197
178 602 40 189 185 196
176 605 41 194 191 200
176 606 41 199 194 198
178 605 40 171 173 185
178 607 41 183 182 194
180 602 40 181 185 201
181 605 40 194 190 198
182 605 40 185 182 191
184 592 38 127 146 170
184 594 38 103 132 160
186 593 38 133 150 174
187 594 38 126 140 163
184 597 39 119 145 178
184 599 39 119 146 175
186 596 38 118 145 173
186 599 38 141 158 181
189 592 38 133 147 166
189 595 38 165 166 176
190 594 38 155 156 166
188 597 38 117 138 166
189 598 38 106 132 168
191 597 38 154 165 188
184 600 39 137 160 190
184 602 39 137 159 195
186 601 38 158 175 197
186 603 39 127 151 193
184 605 39 189 187 200
185 606 39 183 185 196
187 605 39 123 150 189
188 600 38 145 158 180
188 603 38 116 149 195
190 601 38 103 140 179
191 602 38 113 146 188
189 604 39 100 138 186
189 606 39 121 150 194
191 604 38 70 105 165
190 607 39 126 149 199
160 608 46 143 149 165
161 609 46 162 163 173
161 611 47 164 164 172
162 609 46 163 163 170
163 610 46 160 160 167
161 613 47 172 171 179
162 612 47 178 175 185
162 614 46 166 165 174
167 608 43 164 163 172
165 608 45 157 157 167
165 610 44 159 160 172
166 609 44 164 165 176
167 610 44 160 162 174
165 612 45 160 159 167
164 615 45 167 165 173
166 612 44 155 157 171
166 615 44 170 167 174
161 618 47 172 171 178
163 617 46 161 161 169
163 619 46 161 161 169
162 621 47 166 165 172
163 622 46 165 163 170
164 617 45 165 163 170
164 618 45 167 166 175
164 619 46 166 166 175
167 617 44 182 178 186
167 619 45 168 167 180
164 620 46 160 161 171
164 622 46 167 164 172
167 620 45 176 177 187
167 623 45 140 122 137
168 610 43 172 169 183
170 608 43 188 185 194
170 610 43 183 180 188
168 612 43 188 187 198
168 615 43 147 146 162
171 612 42 181 174 187
171 614 43 196 192 196
168 615 44 162 161 171
172 610 42 184 182 192
175 609 41 174 177 191
174 610 42 191 188 197
172 613 42 193 190 196
172 615 43 167 163 176
174 613 42 135 140 157
174 615 43 200 194 199
170 617 43 166 171 185
171 619 43 186 173 183
168 618 44 180 176 186
170 618 44 192 191 199
171 622 43 140 52 57
