ply
format ascii 1.0
comment Version 2, Copyright 2017, 8i Labs, Inc.
comment frame_to_world_scale 0.179523
comment frame_to_world_translation -45.2095 7.18301 -54.3561
comment width 1023
element vertex 2105
property float x
property float y
property float z
property uchar red
property uchar green
property uchar blue
end_header
251 592 123 146 155 173
251 595 121 142 152 171
251 597 121 141 152 176
252 594 122 140 151 172
252 592 125 148 150 173
252 593 126 158 160 176
252 595 125 146 154 175
253 595 127 149 152 168
252 597 122 138 145 162
252 599 121 134 144 159
252 596 124 150 156 171
252 596 127 149 153 169
252 598 124 134 143 159
253 598 126 142 149 164
249 601 112 103 140 183
250 601 112 113 148 202
250 601 115 116 153 197
250 602 114 100 135 177
250 600 116 126 148 175
251 601 117 141 161 183
251 602 116 122 143 177
251 602 119 147 161 181
250 604 113 105 143 191
250 605 114 87 148 226
250 606 113 101 142 198
251 606 115 101 139 181
251 605 116 106 142 184
251 606 117 128 148 179
252 603 119 137 148 164
252 606 119 136 151 173
252 600 121 138 150 168
252 601 122 137 150 170
252 603 121 141 156 175
253 603 123 134 146 164
253 601 124 137 151 173
253 601 127 133 143 162
253 602 126 129 143 162
252 604 120 139 153 172
252 605 122 138 152 172
252 606 121 138 152 171
253 606 123 132 150 171
253 605 124 132 146 167
253 606 124 133 151 173
254 604 127 132 144 161
254 606 127 114 137 165
225 608 66 185 178 182
224 611 66 177 174 179
226 608 67 174 171 179
226 611 67 184 180 186
224 612 66 170 170 176
224 614 67 183 182 192
226 613 67 179 178 187
227 613 68 177 178 190
227 615 68 164 172 191
228 609 69 173 174 185
229 609 70 166 169 182
228 610 71 153 163 179
228 612 69 170 175 191
228 613 71 92 121 160
228 614 71 82 119 162
229 609 72 125 143 165
229 611 72 104 134 163
230 608 73 119 140 164
230 610 75 95 128 158
230 609 77 89 123 153
231 608 79 60 101 142
230 611 77 62 103 151
231 610 79 114 136 162
229 613 73 87 123 157
229 614 72 80 118 157
229 614 75 71 113 148
229 614 76 84 116 145
230 613 77 73 110 147
230 614 76 86 116 149
230 614 79 117 136 158
225 616 67 171 175 190
225 619 67 132 158 198
226 616 68 163 172 193
227 617 69 127 151 187
227 619 69 118 146 183
225 620 67 116 148 190
224 623 68 126 149 185
226 621 68 113 143 184
227 621 70 95 126 165
227 622 70 104 133 172
228 616 71 101 136 171
228 619 70 112 140 176
228 622 71 100 132 167
229 616 73 92 122 152
229 617 74 98 118 141
229 618 73 112 134 160
229 619 75 103 129 157
229 619 77 100 127 155
230 617 78 106 130 158
230 618 79 102 125 154
228 621 73 101 130 160
229 621 74 102 130 159
228 623 73 99 130 163
229 623 74 102 132 163
229 623 76 99 127 156
230 621 78 102 129 159
230 623 77 95 123 151
231 608 80 113 136 160
231 610 81 128 147 173
231 612 81 106 134 164
230 614 80 110 134 162
231 615 81 48 101 152
230 617 80 117 141 168
231 617 82 72 107 151
231 619 80 96 120 148
231 619 83 89 114 155
231 621 80 95 119 144
231 621 83 90 107 143
231 623 80 93 120 146
231 623 83 112 128 151
233 608 83 75 118 152
232 611 83 73 108 143
233 609 84 116 139 163
234 609 85 78 122 165
235 609 87 106 136 165
235 610 86 132 149 172
232 613 82 40 90 150
232 614 83 69 101 146
232 614 84 128 144 164
233 615 85 154 160 175
234 613 85 138 152 174
235 612 87 131 143 160
235 608 88 124 142 164
235 612 89 129 147 169
234 615 88 98 129 161
235 614 90 134 148 174
236 608 89 162 166 178
237 608 90 136 148 164
236 610 89 143 152 166
237 610 90 151 164 184
237 611 92 161 167 181
239 609 93 119 144 175
238 611 92 157 164 182
239 610 95 130 149 176
236 612 91 145 158 178
236 614 91 119 143 175
236 614 92 117 142 173
237 615 94 120 142 169
239 612 94 103 130 164
238 615 94 99 127 158
232 617 83 78 105 148
232 617 86 123 136 156
232 618 84 97 107 154
232 619 86 105 115 152
232 620 85 104 120 144
232 621 86 126 139 161
232 622 85 106 119 145
232 623 86 126 141 162
233 618 88 96 123 159
234 617 89 99 126 157
235 617 90 139 151 171
234 618 90 111 131 161
233 620 88 113 134 161
233 622 89 132 152 178
234 620 90 105 120 157
235 621 91 128 136 151
234 623 90 125 139 157
235 621 92 162 166 176
236 616 92 138 148 166
237 616 94 142 156 177
236 619 93 107 128 153
238 616 94 124 145 170
239 617 95 113 141 173
236 620 93 135 152 173
237 621 94 149 163 184
236 623 94 148 156 172
238 621 95 160 159 168
225 625 68 135 153 186
225 626 68 142 156 187
227 624 70 104 134 173
226 627 69 138 151 183
227 627 70 130 147 179
225 629 69 158 166 188
224 631 70 186 184 194
226 628 70 145 158 184
226 630 71 169 172 186
228 624 71 92 126 165
227 631 72 174 174 183
228 625 73 114 138 167
229 625 74 99 126 155
228 627 73 141 154 176
229 627 75 117 139 164
230 624 76 101 126 151
230 624 79 116 137 161
230 627 76 111 135 161
230 627 79 130 146 168
228 629 74 165 166 176
228 630 72 166 166 174
228 631 75 167 167 177
229 629 76 165 169 182
229 631 77 164 163 171
230 628 78 118 136 158
230 630 79 132 141 156
225 633 70 187 185 194
225 634 70 188 185 194
226 633 71 180 180 191
224 637 71 191 187 197
225 638 71 192 189 197
227 633 73 182 181 190
227 634 73 177 176 187
225 637 72 187 185 195
226 636 73 172 174 184
227 636 75 162 166 177
226 639 73 177 176 186
227 639 74 170 170 179
228 633 74 175 175 184
228 635 75 168 168 177
229 633 77 165 164 172
228 634 76 149 151 160
229 635 77 165 163 168
230 632 79 163 165 176
228 637 75 158 161 172
229 636 77 159 159 166
228 638 76 159 159 165
229 638 78 157 157 165
230 624 80 83 117 148
231 625 81 110 134 162
230 626 80 121 139 161
231 626 82 113 133 156
231 626 84 130 150 174
230 629 81 136 150 170
231 629 82 128 145 166
230 631 81 163 165 174
231 631 83 147 152 165
231 631 85 153 160 175
230 632 82 153 156 166
231 633 83 159 160 169
230 634 82 146 149 160
231 635 83 155 158 169
231 634 84 161 162 172
230 636 81 158 159 168
231 636 82 162 162 170
230 638 81 156 157 167
231 638 82 160 162 171
231 637 84 157 157 164
232 625 84 77 113 144
232 625 87 116 137 162
232 627 84 117 138 163
232 627 87 128 144 165
232 628 86 112 128 149
233 629 87 133 144 161
232 631 86 119 136 158
233 625 89 158 166 182
234 624 89 141 154 173
235 624 91 144 154 169
234 627 91 109 132 159
235 626 92 131 147 170
233 628 89 119 139 163
233 630 88 126 134 149
233 631 90 132 145 165
234 630 90 119 136 158
234 629 92 108 130 154
235 628 94 56 94 156
235 630 93 123 143 166
236 624 93 169 172 182
236 625 95 128 146 171
236 627 94 61 89 155
236 628 95 57 91 159
236 630 95 130 150 176
232 632 87 110 125 145
232 634 86 136 145 159
232 636 85 163 163 171
232 637 87 126 140 159
232 639 85 151 154 165
233 638 87 124 143 165
233 633 89 134 142 157
233 635 88 119 136 156
234 632 91 85 106 129
234 633 92 118 137 160
235 633 94 71 108 150
235 635 93 134 147 165
233 636 88 111 131 153
233 637 90 119 134 154
233 638 90 124 138 158
234 638 90 125 140 160
234 637 92 123 136 155
235 637 94 148 150 160
235 638 93 136 144 158
235 639 94 127 138 154
236 636 95 147 148 156
240 608 95 117 146 175
240 612 95 102 131 168
239 618 96 139 156 180
239 620 96 183 181 188
238 622 97 171 175 186
239 622 98 143 160 184
237 627 96 49 101 154
239 624 97 132 147 171
238 626 97 70 95 158
239 626 99 92 102 162
237 629 96 129 149 173
237 630 97 102 129 158
238 629 97 126 146 171
239 629 99 99 124 158
239 630 99 120 133 160
236 633 96 95 125 159
237 633 98 152 157 170
237 634 97 153 158 171
237 635 99 176 172 178
238 635 99 172 171 178
239 633 101 181 178 184
239 635 101 168 164 169
236 637 96 148 151 161
237 636 99 169 166 172
236 639 96 138 144 156
237 638 99 160 158 163
238 638 99 164 161 166
239 637 101 170 166 170
239 638 101 168 165 169
241 609 96 141 153 189
241 610 97 111 136 183
242 608 98 129 147 169
243 609 99 120 145 180
243 610 99 95 125 168
240 613 97 101 125 169
240 614 96 111 137 173
241 614 98 131 154 188
242 613 99 94 123 172
243 614 99 103 127 177
243 615 101 109 133 175
245 608 101 117 141 178
244 610 101 110 134 179
245 610 102 97 126 187
246 611 103 130 149 200
245 612 102 104 131 194
244 615 101 114 138 180
245 615 102 112 139 180
246 615 103 120 147 194
246 611 104 115 151 204
246 612 104 132 161 206
247 613 105 107 134 175
247 614 105 102 136 178
240 616 97 102 135 175
240 618 97 141 157 183
241 618 99 97 123 161
242 618 99 110 132 172
243 617 100 113 137 183
243 618 101 114 138 181
240 621 98 144 157 178
240 622 99 129 148 176
241 622 100 157 166 190
242 621 101 158 171 195
242 622 100 163 173 197
243 622 103 151 162 186
244 616 102 123 144 182
244 618 102 125 149 186
245 619 103 122 155 192
245 621 103 142 155 183
245 619 104 139 170 204
247 616 105 146 175 203
246 618 105 111 142 184
247 618 107 144 160 194
244 623 104 135 155 181
246 620 105 138 165 197
247 620 107 171 181 200
246 622 106 119 149 185
247 622 108 165 165 181
248 609 107 90 127 197
248 608 108 68 115 197
249 609 109 109 149 194
248 610 108 97 136 189
249 611 109 122 153 187
250 610 111 136 165 199
248 613 107 126 153 186
248 612 108 116 151 184
249 613 109 128 158 198
249 614 108 126 154 192
249 615 110 153 169 200
250 614 110 137 160 198
248 617 107 142 166 198
249 616 108 134 161 194
249 617 110 176 181 203
249 619 109 186 186 200
250 616 111 163 172 193
250 619 111 174 175 192
249 620 109 192 192 201
249 621 111 186 186 195
249 622 109 196 193 200
250 620 111 182 184 195
250 608 114 109 143 184
251 609 115 115 149 188
251 611 113 128 163 196
251 608 116 123 145 177
251 610 117 137 159 187
250 613 113 120 152 202
251 613 114 142 158 185
251 615 113 153 167 191
251 612 116 153 170 192
252 608 119 135 152 172
252 610 118 138 154 174
252 612 117 147 159 178
252 613 118 152 164 182
252 615 117 151 162 180
253 615 119 143 154 172
253 608 121 144 162 183
253 609 123 135 150 171
253 611 120 142 163 188
253 611 123 126 154 185
253 611 124 137 153 175
254 609 126 131 146 166
254 611 125 120 144 171
255 610 127 137 147 164
253 612 121 139 152 172
253 613 122 142 160 186
253 615 121 140 157 181
254 614 123 118 132 150
254 613 124 118 140 171
255 613 126 125 142 162
254 615 125 138 151 174
255 615 127 138 148 162
251 617 112 172 177 190
251 617 115 154 164 180
251 618 114 162 168 182
250 621 112 182 183 192
250 622 112 186 185 193
251 623 114 167 175 190
252 616 117 156 171 192
253 616 119 149 166 190
252 619 116 149 161 182
253 619 118 139 161 190
252 622 115 159 169 186
252 621 116 153 165 183
253 620 119 131 150 175
253 622 116 152 163 180
253 622 119 164 179 200
253 617 120 134 150 171
253 618 121 131 149 171
254 617 122 127 138 153
254 619 122 143 159 181
254 617 125 107 132 163
255 617 127 136 143 160
255 619 125 138 149 165
253 620 121 130 142 158
254 621 120 132 151 173
254 621 123 131 142 157
254 622 122 139 149 165
255 623 123 144 152 167
255 621 124 140 149 164
255 622 125 147 153 167
240 626 99 94 109 167
241 625 100 86 109 154
241 626 101 157 171 192
242 624 102 99 123 166
243 625 103 142 155 183
242 627 103 137 155 184
240 628 101 108 131 165
241 628 102 144 160 184
240 631 102 153 158 171
242 628 102 148 163 185
242 630 103 161 166 183
243 627 104 140 153 179
243 630 105 155 162 181
245 624 104 136 155 180
244 627 104 141 155 179
245 627 106 138 152 178
246 625 107 142 154 185
246 627 106 138 152 178
247 626 108 143 150 172
245 628 105 141 154 177
244 631 106 150 158 180
246 629 107 138 151 175
246 630 108 143 154 176
240 632 101 168 167 175
241 633 103 178 175 183
241 634 103 176 172 179
240 637 102 168 166 172
240 639 103 153 157 170
241 635 104 168 166 172
243 633 105 156 159 175
243 634 105 139 145 165
241 637 104 159 163 175
242 636 106 164 167 178
242 639 105 132 145 174
244 632 105 144 152 172
245 633 106 139 151 173
245 634 107 134 144 168
246 632 108 132 149 175
247 633 109 128 144 172
247 635 109 125 141 169
245 637 107 135 146 173
245 638 108 118 133 166
246 637 109 116 133 165
246 638 108 113 129 163
247 638 110 99 121 159
248 625 109 188 186 197
248 626 108 180 177 190
249 626 111 184 184 198
250 626 111 175 177 194
249 628 110 158 165 182
248 631 109 130 156 185
249 631 110 141 162 190
250 631 111 136 160 189
249 632 110 133 158 191
248 635 110 116 141 175
248 636 111 134 155 189
248 639 111 98 121 160
251 625 112 163 166 181
251 626 112 151 159 176
250 629 112 163 172 193
250 630 112 144 164 190
251 631 113 129 151 181
252 625 115 174 178 190
252 624 116 161 168 182
253 625 117 156 165 181
252 626 116 169 177 193
253 626 118 145 158 177
254 627 118 139 150 167
252 629 115 138 150 169
253 628 116 152 159 177
253 629 118 145 155 172
254 628 118 146 158 176
254 630 119 143 154 171
254 625 120 146 160 180
255 625 122 146 153 169
254 627 121 145 155 173
255 627 122 137 150 170
254 628 120 148 156 174
255 628 122 145 154 171
254 631 120 144 155 174
255 630 122 144 152 167
250 633 112 115 146 184
250 634 112 123 149 187
251 635 113 121 147 184
249 638 112 108 134 172
250 637 113 100 135 175
250 638 112 134 153 183
251 638 115 99 131 177
252 633 114 128 151 178
252 633 116 121 146 175
252 634 116 129 154 185
253 635 117 96 133 173
254 634 118 111 140 175
252 637 115 68 115 169
253 636 116 102 137 180
252 639 116 106 138 179
254 636 118 94 131 176
254 638 119 94 132 176
255 632 120 134 149 171
254 634 120 107 135 169
255 635 121 91 123 166
255 638 120 90 128 174
133 513 159 143 111 92
134 513 159 143 109 91
134 514 159 143 110 93
135 515 159 144 107 89
132 518 159 134 107 87
134 517 159 129 99 77
134 518 159 132 106 86
131 524 159 140 113 88
132 521 159 135 108 82
133 522 159 138 110 84
134 521 159 135 106 82
134 523 158 137 109 83
133 524 159 142 113 88
133 526 158 141 113 87
134 525 158 140 112 88
134 527 158 138 110 83
136 513 158 146 102 84
137 514 158 148 102 83
139 513 157 165 116 101
138 514 158 151 102 84
137 516 158 141 109 91
137 519 158 129 96 85
138 518 158 118 82 61
140 513 157 173 114 102
140 515 157 155 112 96
142 513 157 173 110 98
143 514 157 157 95 83
141 517 157 152 110 97
141 519 157 117 84 72
143 516 157 160 115 101
143 519 157 121 87 75
136 522 158 134 103 83
139 521 157 133 102 83
138 522 157 133 103 83
136 525 157 134 105 82
137 524 158 133 102 82
136 526 158 135 106 83
138 526 157 129 101 80
140 521 157 131 101 82
141 522 157 127 97 78
143 521 157 120 91 75
140 524 157 128 98 83
140 527 156 122 96 75
142 524 157 122 96 83
142 527 156 118 94 75
130 531 159 127 101 76
131 532 158 125 101 76
130 535 159 119 95 71
132 528 159 137 108 81
132 530 158 134 106 78
135 528 157 136 106 82
135 529 158 135 107 81
134 530 158 136 108 81
133 532 158 128 101 75
132 535 158 121 97 75
135 533 156 126 99 75
135 535 156 124 99 74
130 536 159 117 95 70
130 539 158 115 91 70
129 541 159 118 90 68
130 540 159 116 92 71
131 542 157 113 91 68
131 542 158 112 89 68
132 536 157 120 96 75
132 537 158 120 95 74
132 538 158 119 94 72
135 536 156 123 99 74
135 538 156 123 100 74
135 542 155 122 98 74
133 540 157 119 96 74
132 543 157 114 92 70
135 540 156 123 99 76
137 528 157 130 102 78
137 530 156 125 97 74
138 529 157 127 100 77
138 531 156 121 95 71
136 535 155 123 98 73
139 532 155 117 94 72
139 535 154 118 94 73
137 533 156 122 96 73
140 531 155 117 94 73
143 531 155 118 95 77
140 530 156 122 99 80
143 528 156 117 94 78
140 533 155 116 94 75
140 535 154 119 95 76
142 533 155 116 94 74
142 535 154 117 95 75
136 537 155 121 98 74
136 539 155 121 97 74
138 536 155 118 94 71
138 538 154 117 95 72
136 540 155 121 98 74
136 542 154 121 97 73
139 540 153 115 92 69
138 542 153 117 95 72
141 537 153 117 94 74
140 538 153 116 94 72
142 537 153 117 94 74
142 538 153 117 94 74
140 541 153 116 93 71
141 542 152 116 92 72
142 541 153 115 92 75
142 543 152 116 92 71
150 513 128 162 165 174
151 512 131 166 169 181
151 514 129 155 161 173
151 515 130 100 125 155
151 513 133 103 126 156
151 516 128 78 101 142
151 516 131 85 108 147
151 519 128 82 112 142
151 519 131 83 109 145
151 518 132 87 110 143
151 520 129 122 139 161
151 521 130 155 158 168
151 523 129 152 154 163
151 520 132 89 109 136
151 522 133 144 147 157
151 525 128 128 139 157
151 525 131 147 151 160
151 526 131 121 134 152
151 525 132 117 131 149
152 512 134 86 111 148
153 513 135 106 121 141
153 514 135 148 149 156
152 517 135 140 144 155
152 519 134 88 113 140
153 514 136 138 141 151
155 513 137 79 101 125
154 515 136 124 129 140
155 514 139 103 111 124
153 516 136 130 134 144
154 516 137 83 103 123
155 517 138 87 106 125
154 519 137 71 95 127
155 519 138 62 92 124
155 517 141 78 99 120
155 518 140 73 97 121
155 518 142 90 107 126
156 512 139 114 117 125
156 513 140 134 131 134
156 513 143 85 98 113
156 514 142 91 101 114
152 520 134 78 102 130
153 521 135 79 105 129
153 522 135 76 104 129
152 527 129 69 98 132
153 524 135 107 119 137
152 527 133 88 114 141
153 520 136 85 107 134
154 520 137 70 95 125
154 521 138 89 104 128
154 523 136 74 101 126
154 523 139 81 95 111
155 520 141 96 109 125
154 521 143 103 114 128
154 522 142 119 123 133
153 525 136 144 141 144
154 524 138 113 120 131
154 527 137 132 133 139
154 524 140 103 113 126
154 524 143 96 103 114
154 527 140 103 115 130
154 527 143 125 124 127
145 513 157 157 112 102
146 512 156 158 99 94
147 513 157 149 106 98
144 516 157 159 111 101
144 519 157 129 98 85
147 516 157 139 103 93
146 519 157 141 107 93
150 512 155 105 88 87
150 515 155 106 87 87
149 512 156 116 90 86
148 515 157 135 98 88
148 519 155 121 94 85
151 516 154 102 85 87
150 519 154 108 87 82
148 516 156 130 98 90
148 519 156 126 96 86
144 522 157 115 86 71
146 521 156 120 92 72
146 523 156 112 86 73
144 524 157 109 84 72
144 526 157 114 94 80
146 524 157 103 78 68
146 526 156 102 83 73
148 521 155 113 87 79
149 522 155 107 88 83
150 521 154 105 87 84
150 522 154 103 87 83
148 521 156 119 88 75
149 524 154 98 82 77
148 526 155 97 78 69
150 524 153 93 81 80
150 524 154 96 82 79
151 526 153 90 84 86
155 515 146 136 135 140
155 516 144 96 103 114
155 516 147 109 112 119
155 518 144 103 113 126
154 519 147 108 117 130
155 516 148 86 92 100
155 516 151 110 107 112
155 518 148 110 114 122
154 519 150 94 100 111
156 512 144 79 94 112
156 512 147 129 124 125
156 515 144 103 108 118
156 515 147 135 133 137
156 512 150 72 86 107
156 514 149 101 108 120
156 515 150 80 89 103
153 512 154 95 88 91
152 515 154 96 84 89
155 512 152 76 80 92
154 515 152 94 91 97
153 516 153 98 89 93
152 519 153 101 89 91
152 518 154 105 89 89
154 517 153 104 96 99
154 520 144 90 105 122
154 520 147 95 106 120
154 523 144 74 87 101
154 523 147 104 106 113
153 522 151 87 91 99
154 521 148 82 94 108
154 521 151 92 96 106
154 522 150 90 96 106
154 524 145 106 107 113
154 525 146 137 133 134
154 527 145 136 133 137
153 525 148 132 129 131
153 524 151 91 94 102
153 527 148 116 115 119
153 526 150 101 102 107
152 521 153 95 86 90
152 522 152 83 84 92
153 523 152 86 87 94
151 541 131 91 117 143
151 543 131 98 123 148
151 542 133 101 120 141
151 543 135 104 115 129
152 528 130 90 111 138
152 530 129 97 118 140
152 531 130 92 117 142
152 529 133 75 98 135
153 529 134 99 115 135
152 531 133 102 119 138
153 531 135 93 111 131
152 532 130 99 119 142
152 534 129 124 132 145
152 535 130 150 149 156
152 533 133 151 152 159
152 534 132 155 154 159
152 535 134 98 120 142
153 528 136 140 140 146
154 529 137 104 116 131
154 530 136 82 102 121
154 530 139 106 116 130
154 529 140 106 116 130
154 529 143 128 126 130
154 530 142 123 124 130
153 533 136 98 113 131
154 532 136 102 115 131
154 532 139 102 112 126
154 534 138 97 110 127
154 532 141 129 128 132
154 533 142 132 131 135
154 535 141 138 135 138
152 536 128 121 131 147
152 536 131 142 148 161
152 539 128 94 121 148
152 539 131 105 125 146
152 536 134 96 117 139
152 538 132 109 124 143
152 538 135 112 125 141
152 541 128 90 120 149
152 541 131 90 117 144
152 542 130 83 114 142
152 541 134 104 119 138
152 537 136 108 122 140
153 536 138 108 117 131
153 538 136 105 118 134
153 539 138 104 110 121
153 538 140 130 130 136
154 537 140 132 133 138
154 537 143 137 134 138
154 538 143 133 131 136
152 541 136 118 120 127
153 541 138 137 134 136
152 543 137 140 137 140
153 543 138 141 137 140
153 541 141 131 130 135
153 542 140 136 134 137
153 542 143 126 125 132
151 528 151 90 87 88
149 534 151 91 81 77
151 532 151 86 84 86
150 535 151 89 82 79
144 531 155 118 94 79
147 528 155 95 79 68
147 530 155 96 81 69
145 528 156 105 85 72
145 532 155 116 94 77
145 534 154 117 95 78
147 532 154 103 86 73
146 535 154 107 89 75
148 528 154 87 75 69
148 531 153 86 74 69
148 530 154 90 76 67
151 528 152 88 84 85
148 533 153 89 76 68
148 532 154 96 81 71
148 535 153 101 81 67
147 542 151 118 94 77
149 539 151 101 86 76
150 537 150 94 85 80
151 539 149 95 88 85
148 541 151 112 89 74
149 543 149 101 87 79
149 542 150 102 88 79
151 541 148 95 88 86
150 543 149 98 87 80
144 537 153 118 95 78
144 538 153 118 94 75
146 537 153 116 93 78
146 539 153 116 93 76
144 540 153 119 95 76
144 543 152 118 92 73
146 541 152 118 94 76
146 543 152 118 93 75
148 537 153 116 90 73
148 541 152 115 93 76
154 528 144 133 131 133
154 529 146 129 128 133
154 531 145 130 130 135
153 528 148 114 114 118
152 528 151 92 90 92
152 531 149 99 99 103
152 530 150 94 93 96
153 535 147 115 113 117
154 532 146 113 114 120
154 534 145 129 128 131
154 535 146 124 122 125
153 533 148 117 117 121
152 535 149 98 97 99
153 536 146 115 114 118
153 538 146 122 121 126
154 536 145 134 132 135
154 538 144 131 129 133
152 537 148 104 102 105
152 538 149 96 93 94
153 540 145 117 118 124
153 540 147 99 101 107
153 543 144 122 122 128
153 542 147 98 99 105
152 540 148 94 93 96
130 513 161 132 103 84
130 512 162 129 101 77
130 515 161 129 103 84
130 514 162 134 102 84
129 515 165 136 104 85
130 513 165 137 106 86
130 514 164 138 101 85
130 515 166 134 102 85
129 517 163 128 98 76
130 516 161 128 103 83
131 517 161 124 100 81
131 518 160 127 101 80
129 516 165 135 103 82
129 517 166 137 105 86
129 519 165 133 103 80
130 516 167 135 104 86
132 515 160 133 102 83
130 512 168 135 103 85
130 513 170 136 103 86
130 514 168 135 102 84
130 515 170 136 103 85
131 512 172 135 103 86
131 514 173 134 102 83
129 519 169 129 97 82
130 516 170 137 103 86
131 517 171 137 104 87
130 518 171 135 103 86
131 517 172 136 104 86
131 519 172 131 99 81
132 512 174 138 105 88
132 515 173 135 102 84
133 515 174 138 104 86
134 515 175 139 105 87
133 516 174 138 104 87
132 519 173 134 101 83
133 519 175 134 102 83
129 520 162 124 96 73
129 523 161 126 101 74
130 520 161 122 99 74
130 523 161 127 102 75
129 521 164 129 98 80
129 521 167 119 94 72
129 522 164 126 98 77
129 522 167 110 86 61
129 524 162 126 100 74
128 526 162 122 96 73
129 527 162 123 96 73
131 524 160 137 110 83
130 527 161 128 102 79
128 525 164 118 94 69
128 525 167 117 92 70
128 526 166 120 92 67
129 520 169 123 96 78
128 523 168 109 89 66
129 522 170 111 88 64
130 520 171 126 98 79
130 521 172 122 95 77
131 521 174 128 99 80
131 522 173 121 93 73
128 524 169 116 95 73
129 524 170 116 94 73
128 526 169 129 101 80
128 527 170 139 108 87
129 525 172 119 95 76
130 524 172 113 90 70
131 525 174 123 94 75
131 527 175 130 99 79
132 522 174 127 97 77
133 523 175 129 98 78
132 524 174 124 94 75
132 526 175 130 99 79
134 513 176 140 103 88
134 514 176 140 103 87
135 515 177 138 101 86
134 518 176 134 101 82
135 519 177 134 99 81
135 521 176 134 99 81
135 522 177 136 100 83
134 524 176 132 98 80
135 525 177 136 100 82
135 527 177 137 101 84
137 512 178 144 106 91
136 514 178 140 103 88
138 513 179 143 105 90
139 514 179 142 104 90
139 515 180 141 101 88
136 518 177 136 102 84
138 516 178 140 103 87
139 517 179 141 102 88
139 519 179 138 100 85
140 512 181 141 104 91
140 514 180 142 103 91
141 515 181 141 100 89
143 513 182 130 94 85
143 515 182 130 93 82
140 518 180 138 100 86
141 519 181 133 97 82
143 516 182 129 92 82
143 518 182 128 91 81
137 521 177 137 100 84
137 522 178 137 100 83
139 521 179 135 98 82
139 523 179 134 97 82
137 525 178 137 100 84
137 526 178 137 100 83
138 525 179 137 100 85
138 527 178 138 101 84
139 525 180 135 98 83
141 520 180 133 96 83
141 522 180 131 94 81
143 521 181 126 91 78
140 524 180 133 95 81
140 526 180 135 98 83
141 527 181 133 96 84
142 526 181 129 93 80
143 527 182 122 88 77
128 529 162 125 97 74
129 530 161 121 97 75
128 531 162 127 96 77
131 529 160 128 102 78
128 531 164 135 96 77
129 533 160 120 95 71
128 533 163 137 97 79
129 535 160 120 94 73
128 535 163 140 99 79
128 533 166 152 106 89
128 535 165 149 104 86
128 528 169 147 110 92
128 529 171 150 113 95
128 531 170 157 116 101
129 530 172 148 112 94
131 528 174 134 103 83
131 531 173 144 109 90
128 533 169 158 115 98
129 532 171 154 114 97
128 535 169 156 114 98
129 534 171 152 112 94
129 535 172 148 109 90
131 532 173 146 108 91
130 534 173 145 105 89
131 535 174 142 101 85
133 529 175 137 101 82
133 530 175 137 102 81
132 533 175 141 103 83
132 535 174 142 101 84
128 536 161 129 95 75
129 537 161 125 94 73
128 538 161 131 96 76
129 539 161 126 94 73
128 536 164 144 104 82
128 536 167 150 108 91
128 539 164 141 102 80
128 539 166 144 101 84
129 540 160 122 94 70
128 540 163 140 102 80
129 542 161 132 100 76
129 543 162 134 99 73
129 540 165 141 100 80
129 541 166 140 101 79
129 543 165 136 99 77
128 536 168 152 110 93
128 536 170 152 111 93
128 538 168 146 105 87
129 538 170 145 105 86
129 537 172 144 104 84
131 536 173 143 103 86
130 539 172 143 106 85
131 539 174 141 104 82
129 540 170 144 107 85
129 542 169 141 104 82
129 543 170 138 102 81
130 540 173 141 104 82
131 540 174 140 104 81
131 543 173 139 102 80
133 536 175 139 100 81
133 539 174 140 102 80
134 539 175 138 100 79
133 541 174 138 100 77
133 543 174 138 101 79
134 542 175 137 98 77
133 529 176 137 101 82
134 530 176 137 101 81
134 532 176 138 102 82
135 533 177 137 99 80
135 535 176 138 100 82
135 536 177 138 99 81
135 539 176 138 99 80
136 528 178 137 101 83
136 530 178 137 99 81
138 529 179 138 99 82
138 531 178 138 99 82
136 532 177 137 99 82
136 534 177 136 98 80
138 532 178 137 98 81
138 534 178 136 97 81
139 535 179 136 96 80
141 529 180 136 99 84
141 530 181 134 97 82
143 529 181 127 93 79
143 530 181 125 92 76
140 533 179 136 97 81
141 532 180 134 96 78
141 535 180 132 94 77
143 533 181 124 90 74
143 535 180 125 90 75
137 537 177 137 99 82
137 538 177 137 100 81
139 536 179 135 97 80
139 538 178 135 98 79
136 540 177 136 98 78
136 542 176 136 98 78
138 541 177 136 98 79
139 541 178 135 98 78
138 543 178 136 99 79
140 536 179 134 96 79
141 538 179 134 96 79
141 539 180 133 95 79
142 538 180 130 94 76
140 541 179 134 97 79
141 540 180 133 95 79
142 541 180 130 93 77
143 542 180 125 91 76
145 512 183 118 85 77
145 514 183 119 88 79
147 513 183 107 82 76
147 515 183 108 82 75
144 519 181 123 89 79
145 519 182 116 86 75
147 517 182 112 81 72
147 518 182 113 81 74
148 516 183 98 73 70
148 518 183 96 69 66
148 512 184 92 67 66
148 512 186 89 90 98
149 513 187 76 102 129
149 515 185 77 71 94
149 515 187 56 88 128
148 512 190 69 106 138
148 514 189 52 97 133
148 514 191 86 110 134
149 516 185 79 74 106
149 517 186 73 102 139
149 519 185 94 115 140
150 519 185 78 106 136
149 516 189 39 83 122
149 516 190 57 94 127
149 518 189 57 89 128
149 519 190 64 91 122
145 521 181 116 84 76
146 520 181 114 81 75
146 523 181 115 84 76
144 525 181 119 86 76
145 526 182 116 83 72
147 525 181 110 79 75
146 527 182 114 83 73
149 520 182 89 67 60
148 523 181 103 78 70
150 522 183 83 89 110
149 525 181 88 67 66
149 527 181 90 74 65
150 526 181 78 63 64
150 527 182 73 84 103
150 520 185 74 106 138
150 521 186 44 83 119
150 523 185 64 102 135
149 520 188 46 83 115
149 521 190 67 94 121
150 520 188 44 81 114
150 523 188 59 82 116
150 524 185 64 96 131
150 525 186 76 95 128
151 527 184 91 110 143
151 526 186 88 106 133
150 524 189 72 88 125
150 525 190 84 101 131
150 527 189 83 101 131
144 528 182 118 86 76
144 530 182 117 85 72
147 528 181 109 80 70
146 531 181 110 79 66
144 533 181 119 87 74
144 535 181 120 88 73
147 532 181 103 79 69
146 535 180 112 83 68
149 528 181 87 72 65
149 531 181 80 67 74
151 528 182 66 90 120
150 531 181 77 75 83
151 531 182 76 105 132
148 532 181 91 73 70
148 534 180 97 76 67
150 533 181 65 72 89
151 533 182 67 88 121
151 534 181 66 73 105
151 535 182 64 86 116
151 529 185 65 86 123
151 530 184 63 86 124
151 530 187 73 88 124
150 529 188 84 100 132
150 528 191 90 106 133
150 531 188 82 95 127
150 530 191 89 105 130
151 533 184 43 77 114
151 533 187 71 86 118
151 534 186 58 83 115
149 534 191 82 106 129
150 533 189 77 97 123
150 533 190 81 102 126
150 535 189 78 100 122
150 535 191 77 102 124
147 537 179 113 84 72
144 536 180 121 88 73
144 539 180 122 88 74
147 536 180 111 83 69
147 543 179 106 80 71
144 542 180 121 89 77
146 541 180 115 84 74
148 536 179 102 78 68
148 539 179 104 80 71
151 536 179 77 66 75
151 539 179 62 60 83
151 536 182 74 94 118
148 541 179 101 78 70
149 542 179 84 74 68
151 541 179 79 84 97
151 540 180 68 80 105
151 537 185 73 88 121
151 538 185 60 77 118
149 536 191 102 117 133
151 536 188 83 99 117
150 537 191 111 121 134
151 539 188 55 75 116
150 539 191 72 87 128
151 543 187 63 81 116
150 540 190 68 90 121
151 541 190 100 109 121
150 542 191 111 119 131
152 537 181 81 97 120
152 538 181 67 84 111
152 539 183 64 94 124
152 541 181 78 99 124
152 542 180 80 97 118
152 542 183 73 93 120
152 538 185 54 75 117
152 540 185 62 83 117
152 542 184 67 86 115
152 542 187 90 102 125
129 545 159 119 90 67
131 544 157 114 92 70
130 546 157 110 88 64
131 547 157 112 90 68
131 551 155 111 90 68
129 549 158 114 89 62
129 550 158 114 90 62
130 549 156 110 87 62
130 550 156 110 88 64
131 551 156 113 91 69
134 544 155 122 98 74
135 545 155 122 98 73
135 546 155 122 98 71
133 544 156 118 94 69
134 544 156 122 98 73
133 549 155 120 97 72
133 550 154 120 96 71
134 548 155 123 99 73
134 551 153 125 100 74
132 548 156 116 93 68
133 557 151 121 96 71
135 556 151 125 99 73
134 559 151 121 97 72
130 552 155 107 87 68
131 553 155 109 88 66
130 555 155 106 87 67
129 553 156 104 85 65
128 553 159 115 90 63
129 554 157 109 90 70
128 555 158 114 93 71
129 557 154 104 86 65
129 559 155 105 86 66
130 556 154 106 86 64
131 558 152 113 92 70
128 557 157 107 87 64
128 556 159 113 88 61
128 559 156 105 86 66
128 559 158 109 86 61
132 552 154 114 92 70
132 555 153 114 91 68
134 552 153 127 101 72
135 553 152 128 102 71
132 556 153 112 91 69
132 559 152 117 94 71
139 550 151 121 97 74
142 546 151 120 95 74
140 549 151 121 96 73
140 551 150 123 98 75
142 549 151 120 96 71
142 551 150 122 97 72
136 544 154 120 97 74
137 546 153 120 97 74
138 545 153 119 96 73
139 546 152 119 96 71
136 549 153 125 100 72
136 550 153 125 100 73
138 548 153 121 97 72
140 544 152 118 93 71
140 546 152 119 95 74
142 545 152 119 94 73
136 552 151 128 101 72
136 554 151 128 101 75
138 552 150 124 98 74
139 554 149 124 97 74
139 555 150 124 97 74
137 558 149 122 97 71
138 557 149 124 99 74
138 558 149 123 97 70
140 553 149 123 97 74
141 553 150 123 98 75
142 552 149 121 96 73
143 552 150 120 95 71
143 555 149 122 97 75
141 557 148 121 96 73
141 558 148 120 96 72
143 556 148 121 96 75
143 558 148 120 94 72
131 566 151 109 88 65
132 562 151 115 92 66
133 563 151 117 94 68
134 561 151 120 97 72
135 563 149 119 96 71
132 565 150 118 94 67
133 567 149 119 95 68
134 564 149 119 95 69
134 564 150 119 96 69
135 566 149 117 94 67
129 560 154 105 85 64
129 563 153 106 86 64
129 563 154 106 86 63
131 561 152 110 89 68
131 562 153 108 87 64
128 561 157 107 84 59
128 562 156 106 86 64
129 564 153 106 86 63
128 565 155 107 85 60
129 567 152 108 86 61
128 567 155 110 87 61
131 564 152 107 87 66
128 564 156 106 84 58
132 562 152 114 92 66
131 568 150 115 93 66
131 571 149 120 94 65
131 571 150 114 90 63
129 572 151 107 87 65
128 574 150 109 87 63
129 575 150 109 88 64
131 573 149 115 92 67
130 575 148 113 90 66
134 571 147 118 94 69
133 569 149 118 95 68
132 571 148 121 96 68
134 568 149 118 95 69
134 570 148 119 95 68
133 573 147 118 95 69
134 572 147 117 94 68
135 573 146 116 93 69
132 572 148 120 96 68
129 568 152 108 86 62
128 569 154 110 88 63
129 570 152 108 86 63
128 572 153 107 86 61
137 561 149 122 97 73
137 563 148 120 96 70
139 560 148 122 97 73
138 563 148 121 96 70
138 566 147 120 97 70
136 564 149 119 96 71
136 567 148 119 96 70
139 564 148 120 95 68
141 563 147 121 96 72
142 562 147 118 93 69
140 560 148 121 97 73
140 563 148 121 96 71
141 564 147 120 96 72
141 567 147 122 96 71
143 565 146 118 94 74
143 566 146 118 94 74
136 569 147 118 95 70
136 571 147 117 94 70
138 569 146 121 97 70
138 570 146 119 95 69
136 572 146 117 94 69
137 575 145 116 93 69
139 572 145 119 94 69
138 574 145 116 93 68
140 568 147 121 97 71
140 571 145 119 93 67
143 569 145 120 95 73
142 570 145 120 94 67
140 572 145 119 93 68
140 575 145 118 93 68
142 573 145 119 93 68
142 575 144 118 92 69
151 545 129 71 102 133
151 546 130 94 115 140
151 544 133 100 118 138
151 545 134 109 119 134
151 547 133 92 108 127
151 549 131 111 120 135
151 548 134 128 130 138
151 559 143 87 79 81
152 546 128 99 122 146
152 544 135 131 132 138
152 547 135 127 128 135
152 548 130 99 120 142
152 551 128 103 119 138
152 551 131 146 144 149
152 551 132 146 143 147
152 551 135 140 137 140
152 544 138 138 136 140
152 546 136 124 124 129
152 546 138 135 134 138
153 544 140 141 138 141
153 544 143 133 131 136
153 547 140 138 137 141
153 547 143 129 128 133
153 549 136 133 132 136
153 549 139 134 134 140
153 551 136 139 136 139
153 551 139 135 133 138
153 549 141 129 127 132
153 550 140 127 127 133
154 550 140 129 128 133
154 551 142 122 122 126
152 552 130 146 144 147
152 554 129 140 141 149
152 555 130 137 138 146
152 553 133 139 135 139
152 554 132 134 134 139
152 554 135 139 137 140
152 557 128 156 154 158
152 557 131 140 139 144
152 558 130 149 146 151
152 556 133 134 134 139
152 557 134 125 125 131
152 559 133 140 137 140
152 552 136 141 137 139
153 553 137 143 140 143
152 555 136 133 132 136
153 554 138 143 140 144
154 554 139 143 140 143
153 553 142 118 118 122
153 554 142 122 121 124
154 552 141 130 128 131
154 554 141 135 132 135
153 556 137 138 136 140
153 557 138 122 123 129
153 558 137 124 124 131
153 559 138 128 128 134
153 557 141 114 113 116
153 557 142 99 97 98
152 558 142 81 79 82
153 559 142 86 87 91
144 546 151 120 93 75
146 544 151 116 93 74
147 545 150 115 92 75
147 547 150 116 93 73
145 549 150 117 92 73
144 551 150 117 93 72
146 548 150 117 94 74
147 550 149 115 91 74
148 545 149 106 89 76
149 544 150 103 88 77
149 547 148 106 90 78
150 545 148 104 90 82
150 547 148 106 91 81
150 549 147 105 90 80
150 550 147 103 88 77
148 548 148 109 91 76
149 549 148 108 91 77
149 551 148 105 88 75
144 552 149 119 94 75
144 555 148 120 95 73
146 553 148 116 93 76
146 554 148 117 93 74
144 558 147 119 94 73
146 557 147 119 93 73
147 558 146 99 75 57
145 556 148 119 95 73
148 553 147 107 89 77
148 555 146 111 91 76
151 552 145 84 80 79
151 552 146 97 88 83
151 555 144 100 88 86
148 553 148 108 90 79
148 557 146 95 76 62
149 558 145 94 78 67
150 557 145 95 80 76
150 558 145 93 80 73
153 544 145 108 108 112
152 545 147 97 94 94
153 546 145 114 112 115
152 547 146 98 96 97
153 548 145 110 108 111
152 550 145 80 79 83
152 550 146 79 77 78
153 552 144 84 87 94
152 556 144 79 68 74
151 561 143 89 86 88
151 563 142 89 86 87
148 566 143 82 77 77
149 567 143 87 78 73
150 565 143 89 80 76
151 566 140 83 84 91
150 567 142 87 78 74
146 573 143 120 93 75
146 575 143 114 89 72
151 568 139 91 85 92
151 571 138 84 75 79
148 569 143 93 81 76
149 571 141 88 79 76
150 568 140 84 78 80
151 569 140 85 79 81
150 573 139 86 77 74
150 574 139 87 77 72
148 572 141 87 79 76
149 573 141 86 79 77
149 574 140 87 78 75
150 573 140 88 78 74
153 560 128 151 149 155
152 560 131 147 143 146
153 562 129 138 139 147
153 563 130 136 137 144
152 561 133 143 139 142
153 560 135 140 136 138
153 563 132 128 128 134
153 563 135 134 133 137
152 565 131 144 141 145
153 566 128 148 144 147
152 566 131 147 144 146
152 565 132 139 137 142
153 565 133 133 132 137
152 566 132 141 138 142
152 567 134 140 136 139
153 560 137 137 135 139
153 561 138 139 136 138
153 563 137 135 132 136
152 561 141 89 89 93
152 560 142 81 82 89
152 562 141 89 88 91
152 562 142 73 77 83
153 565 137 120 120 127
153 565 139 95 85 91
152 566 138 99 91 99
152 564 140 85 85 89
153 565 140 89 83 90
153 569 128 138 136 140
152 569 131 136 132 135
153 571 129 143 139 142
153 571 130 140 137 141
152 569 133 142 138 141
152 570 132 135 133 136
152 570 135 117 101 101
153 572 128 147 143 145
153 572 131 132 132 137
153 575 128 140 139 144
153 575 131 134 136 144
153 572 134 119 115 119
153 574 133 112 107 107
153 575 134 117 117 122
152 569 137 104 94 95
152 570 137 95 90 90
152 571 138 88 80 84
153 572 136 94 87 89
152 575 137 84 84 92
152 574 138 76 73 80
145 560 147 119 94 72
145 562 146 117 93 71
146 561 146 112 91 72
147 563 145 113 91 75
145 564 146 116 93 73
145 567 146 116 92 73
146 564 146 118 95 75
147 567 144 96 84 78
149 560 145 92 78 66
148 562 145 88 79 72
150 560 144 91 82 75
148 564 145 97 83 74
144 569 145 118 93 72
145 568 146 115 92 71
145 571 144 117 92 72
147 569 144 118 92 75
144 572 145 118 94 73
144 575 144 117 91 71
146 574 144 116 91 75
129 545 161 128 97 70
129 546 160 124 93 69
129 546 163 131 97 74
129 545 164 132 97 74
129 545 167 135 100 76
129 546 166 133 98 74
129 548 160 121 91 67
128 549 163 125 94 68
128 550 160 119 89 61
128 550 162 123 93 67
129 548 165 131 97 71
129 549 166 130 97 71
129 550 164 128 97 69
129 551 166 128 96 71
129 545 169 135 99 77
129 547 168 134 98 75
130 545 171 135 99 76
130 544 172 137 101 79
131 545 173 137 99 77
131 547 172 135 100 77
129 549 169 132 96 73
129 551 169 132 97 73
130 549 171 135 99 78
131 548 172 136 100 77
131 551 172 134 99 76
132 545 174 138 102 79
133 546 174 138 102 79
135 545 175 136 99 77
132 548 173 135 100 76
132 551 173 133 97 76
134 549 174 135 101 77
134 550 175 135 100 75
128 552 160 118 89 61
128 552 163 123 94 66
128 555 160 117 90 60
128 555 163 123 94 66
128 552 166 128 97 73
129 553 167 129 96 72
128 554 166 128 96 71
128 556 161 118 91 61
128 557 162 121 93 65
128 559 161 118 89 62
128 556 164 124 94 68
128 556 167 129 98 70
128 559 164 125 94 67
128 559 167 128 97 71
129 552 170 132 97 73
129 554 169 131 98 73
130 552 170 133 97 73
130 552 172 133 98 74
131 553 173 134 98 74
131 555 172 133 99 76
129 556 169 131 98 72
128 558 169 129 95 70
129 559 170 131 97 71
130 559 170 131 98 72
131 557 172 132 98 75
133 552 174 132 95 74
133 555 173 134 98 76
134 553 174 133 97 74
135 554 175 134 98 76
132 557 173 132 98 74
132 558 173 133 97 73
134 557 173 132 97 75
135 557 174 133 98 78
134 558 174 132 96 75
136 555 175 134 99 78
136 558 174 133 98 78
137 559 175 133 98 78
135 547 176 136 100 78
135 552 176 136 98 78
136 546 176 136 98 78
138 545 177 135 97 78
139 545 178 135 97 77
138 547 178 136 98 80
136 548 176 136 100 79
136 551 176 137 99 80
138 548 177 136 98 80
138 550 177 135 96 79
140 544 179 134 97 79
141 547 179 131 94 78
141 546 180 132 95 78
143 545 180 126 89 75
140 548 179 134 97 80
140 550 179 134 95 80
142 548 179 130 94 77
142 551 179 128 92 76
136 552 176 136 98 78
136 554 176 134 98 77
139 552 177 134 97 78
138 554 177 135 98 78
139 554 178 134 97 78
139 556 177 135 97 78
139 558 176 134 98 77
140 553 178 132 95 77
140 555 178 133 95 77
142 553 178 127 91 74
143 554 178 124 90 73
140 556 178 132 95 76
140 559 177 132 97 78
143 556 178 124 90 72
143 559 177 125 91 73
128 560 167 128 97 72
128 563 166 130 97 70
128 567 167 134 98 72
129 560 170 132 98 73
128 563 169 131 97 71
130 561 170 132 98 72
130 563 170 132 99 73
131 560 172 134 99 75
129 565 169 134 99 74
129 566 169 135 100 75
131 564 171 136 100 76
131 566 170 138 101 77
132 562 171 134 99 75
133 560 173 135 98 76
134 560 173 135 99 78
135 560 174 134 99 79
134 563 173 136 99 78
132 565 171 137 101 78
133 566 171 138 101 78
133 567 172 138 101 78
135 564 174 136 99 79
135 566 173 137 101 80
128 568 169 136 100 75
129 568 170 138 101 77
128 571 169 136 101 75
130 569 170 139 101 77
130 570 170 139 101 77
131 571 171 140 103 80
129 572 170 138 101 78
130 572 170 139 101 78
131 573 171 138 101 77
131 574 170 136 100 75
133 569 171 139 101 78
133 568 172 138 101 77
134 569 172 137 101 77
134 570 172 138 100 77
135 571 173 136 100 79
133 572 171 139 101 78
133 574 171 136 99 74
133 575 172 135 98 74
135 572 173 136 99 77
134 574 173 135 97 74
135 575 174 133 97 74
137 561 175 133 97 76
137 563 175 134 97 78
136 564 174 135 98 78
136 567 174 135 100 79
138 566 175 132 96 75
137 569 175 132 97 75
137 570 175 133 98 76
138 571 175 131 98 75
137 572 175 131 97 74
137 575 174 130 95 72
138 575 175 128 93 71
139 560 176 132 97 77
139 563 176 131 95 77
138 566 176 131 95 75
140 561 177 130 96 77
141 562 177 127 93 75
143 561 177 123 90 72
140 564 177 128 93 73
140 566 176 128 92 74
142 564 177 123 90 70
142 567 177 122 88 72
139 569 176 128 93 73
139 572 176 129 94 73
140 569 176 127 91 73
140 571 176 126 91 71
142 569 177 122 89 71
142 571 176 122 88 69
141 572 176 124 89 70
141 575 176 122 90 70
142 574 176 120 88 69
149 559 175 92 75 63
145 546 179 119 84 72
146 546 179 115 83 73
144 545 180 121 86 73
145 546 180 120 85 74
144 549 179 122 87 74
144 551 178 121 89 72
146 549 178 114 86 71
147 551 177 109 85 70
148 545 179 100 78 70
148 546 179 101 79 71
150 544 178 69 62 73
151 545 178 64 67 84
151 547 178 67 72 87
149 549 178 88 73 71
148 550 178 104 82 68
151 548 178 68 73 89
151 550 178 53 70 93
151 544 191 57 77 122
151 546 190 121 126 137
151 549 189 95 108 127
151 551 189 98 111 128
144 552 178 120 89 72
144 555 178 120 88 72
147 553 177 107 84 70
146 554 178 113 85 71
145 557 177 117 86 73
144 558 177 121 89 72
146 557 177 114 84 73
146 559 176 114 84 67
148 552 177 98 79 67
148 555 177 96 78 68
150 553 177 71 67 81
151 553 178 63 77 97
151 555 178 54 76 101
149 557 177 78 70 69
150 556 177 68 73 81
151 557 178 48 70 97
151 554 186 127 131 140
151 552 189 134 134 139
151 553 190 139 137 141
151 555 189 134 135 142
151 556 186 91 106 123
151 558 187 124 128 138
151 557 189 100 114 131
151 558 188 122 128 138
151 558 191 101 113 129
152 546 179 76 92 110
152 545 181 74 99 123
153 545 183 69 91 125
153 547 181 82 99 128
152 548 178 74 84 103
152 550 179 56 82 114
152 549 180 68 89 119
153 548 183 68 88 126
152 551 180 51 77 116
152 551 183 79 95 123
152 545 184 64 85 121
152 545 186 80 96 125
153 546 185 76 88 125
152 547 186 78 91 124
152 546 189 127 132 141
152 549 185 64 87 124
152 548 187 90 104 129
152 551 184 92 106 126
152 551 187 111 119 130
152 550 188 84 103 124
152 552 179 43 72 109
152 552 181 53 76 118
152 553 182 77 93 124
152 555 181 58 75 118
152 556 178 35 64 97
152 558 177 38 58 99
152 558 178 28 49 96
152 556 180 45 59 110
153 557 181 65 74 117
153 558 180 63 72 117
152 558 183 108 117 131
152 552 184 91 103 124
152 552 187 133 133 139
152 555 184 80 99 123
152 552 189 123 125 133
152 556 186 94 109 128
152 559 185 122 127 138
147 561 175 112 84 73
147 566 175 109 83 71
149 561 174 96 78 70
149 563 174 97 79 65
150 562 174 84 72 66
148 565 175 106 82 68
148 567 175 108 81 68
150 564 174 90 74 57
150 567 174 96 75 62
149 568 174 102 76 62
148 571 175 105 80 69
151 568 174 90 72 61
151 571 174 94 74 68
148 574 175 100 78 63
150 572 175 97 76 66
150 574 175 90 72 64
152 560 174 47 61 92
153 561 175 38 58 102
153 563 174 43 63 98
152 564 174 62 64 80
152 567 173 69 61 71
155 565 173 55 72 100
155 565 174 48 68 98
155 567 173 52 68 89
157 565 174 40 73 103
157 566 173 50 80 111
158 566 173 56 84 115
158 566 175 42 70 108
158 572 167 47 62 99
159 574 166 32 63 99
155 570 171 47 54 75
153 569 172 62 60 70
153 570 172 66 63 71
154 568 173 49 58 81
154 571 172 70 63 67
155 573 171 58 58 77
153 572 172 80 67 66
152 573 174 83 69 67
152 575 174 70 62 70
154 575 173 60 56 74
156 569 171 34 53 83
157 570 169 43 57 88
157 570 170 45 56 87
159 568 171 41 40 90
158 571 169 39 48 73
158 568 172 37 52 93
157 572 168 42 49 87
156 573 170 49 50 70
156 575 170 39 59 88
158 574 168 36 62 97
144 560 177 122 89 73
144 562 177 120 87 71
146 561 176 116 85 72
147 562 176 112 83 72
145 564 176 117 86 72
144 567 177 117 86 67
147 564 176 112 84 72
147 567 176 111 83 71
151 561 191 101 105 125
144 570 176 116 86 69
146 569 176 113 84 69
147 570 176 109 82 68
145 573 176 110 82 68
146 572 176 109 82 69
146 575 176 107 81 66
153 560 176 20 50 90
154 561 176 26 45 91
154 561 179 57 62 115
155 562 177 30 34 91
153 560 181 88 95 127
154 560 181 96 103 133
154 560 182 102 110 134
155 562 181 80 86 127
155 563 183 88 96 127
156 563 180 47 53 114
157 564 176 36 49 91
157 564 178 25 38 88
158 565 177 31 41 83
159 566 176 34 55 95
158 566 179 47 55 81
156 564 180 40 47 109
157 565 181 36 49 94
157 565 182 42 53 103
158 565 181 48 60 92
159 567 180 49 58 75
158 567 183 60 73 102
153 561 184 108 117 134
152 561 187 123 129 140
153 563 187 114 122 135
155 563 184 93 104 127
152 560 188 114 121 133
152 561 191 107 111 132
153 563 189 101 109 132
153 563 190 97 104 131
154 564 186 102 112 130
155 565 187 98 106 131
153 565 190 85 93 134
154 565 189 94 103 129
155 566 188 89 98 127
154 566 191 98 108 126
156 564 184 84 87 126
156 566 185 54 65 116
156 566 186 63 73 120
158 567 184 60 73 104
159 568 183 57 76 93
159 571 183 48 66 96
155 568 190 87 95 116
155 570 191 69 75 114
156 569 187 57 73 109
157 570 186 54 70 109
158 569 184 50 72 99
158 571 185 47 66 101
158 571 186 51 65 105
157 569 188 68 83 110
157 570 188 66 81 110
157 572 187 55 62 105
159 573 184 14 46 80
158 573 187 67 69 105
158 574 187 76 75 108
156 572 189 82 91 110
156 572 190 83 95 114
157 574 188 99 98 116
156 575 191 80 98 118
158 575 188 108 109 131
160 571 167 36 54 91
163 571 167 33 52 106
163 575 163 24 65 106
160 572 166 30 50 91
160 575 165 33 62 100
160 574 166 30 60 98
162 573 165 36 56 103
163 572 166 40 59 103
164 574 163 22 59 108
165 575 163 32 73 112
164 573 165 29 56 104
165 572 167 51 64 105
165 574 165 37 65 102
166 574 165 44 70 99
166 574 166 61 75 110
161 569 170 57 54 105
161 570 168 55 66 106
162 570 169 47 59 109
162 570 170 40 52 102
163 571 171 46 38 86
161 569 172 53 41 98
161 569 175 45 40 92
162 570 173 35 40 87
162 570 175 40 52 93
163 572 172 42 28 83
163 573 175 30 46 90
164 572 168 47 60 103
165 573 169 55 66 99
165 573 171 49 56 97
167 574 168 56 65 103
166 574 171 51 60 99
164 572 173 46 38 88
164 573 175 36 50 93
165 575 173 37 54 97
165 575 175 39 57 96
168 575 167 52 62 104
160 567 179 47 55 73
161 569 176 48 46 93
161 569 178 30 44 77
162 569 176 43 45 94
162 571 176 37 55 90
162 571 178 33 52 83
160 569 181 47 58 87
161 570 180 29 47 84
160 571 182 46 59 97
162 572 178 40 55 89
163 573 178 42 59 97
163 575 178 47 60 102
161 573 181 35 46 81
161 573 182 34 44 79
160 575 182 33 50 86
162 573 180 31 52 87
164 573 176 38 57 97
164 575 177 43 52 96
160 575 184 35 48 85
149 512 194 60 91 130
148 515 192 92 112 135
149 514 194 32 74 113
149 513 196 74 99 126
149 513 199 112 121 135
149 514 198 113 123 138
150 512 197 78 103 127
149 517 192 50 83 126
149 517 195 78 98 117
149 518 194 58 80 117
149 516 197 74 98 128
149 516 199 54 82 123
149 518 197 99 111 125
148 519 198 102 116 132
149 513 200 103 115 131
149 513 203 108 120 136
148 514 203 110 120 135
149 515 202 128 132 142
149 512 205 89 108 128
148 513 207 95 111 130
148 514 206 100 117 137
148 516 201 70 92 120
148 516 202 107 117 131
148 518 201 60 86 125
148 519 202 83 105 129
148 517 205 128 135 146
148 518 204 78 100 124
148 518 207 105 113 132
149 521 192 84 106 129
149 521 195 79 101 125
149 522 194 94 113 133
148 520 197 60 87 120
148 520 198 86 107 131
148 522 197 83 104 130
148 522 198 69 94 126
149 524 193 77 102 128
149 525 194 88 111 133
149 526 194 92 112 134
150 526 192 93 110 133
149 525 197 108 123 140
149 525 198 107 122 141
149 527 197 80 107 132
147 521 202 112 124 140
147 523 203 90 107 130
147 520 206 89 104 131
147 523 204 105 118 138
147 523 207 104 115 132
147 526 203 113 125 141
147 525 205 94 104 131
147 526 204 110 120 137
147 526 207 115 122 138
148 521 200 96 114 135
148 521 203 99 117 136
148 522 202 95 112 134
148 520 207 96 107 130
148 525 201 111 125 143
148 527 200 82 109 134
148 526 203 109 123 141
148 513 208 104 115 130
148 513 211 112 120 134
148 514 210 103 114 129
148 512 213 105 115 130
149 512 215 136 138 146
148 515 212 113 124 140
149 515 214 125 132 144
148 517 209 105 114 131
148 518 208 104 111 130
148 518 211 104 115 132
148 517 212 111 124 140
