ply
format ascii 1.0
comment Version 2, Copyright 2017, 8i Labs, Inc.
comment frame_to_world_scale 0.179523
comment frame_to_world_translation -45.2095 7.18301 -54.3561
comment width 1023
element vertex 2060
property float x
property float y
property float z
property uchar red
property uchar green
property uchar blue
end_header
381 678 177 108 59 55
383 677 177 72 89 124
383 678 177 67 88 122
377 681 177 150 68 71
378 680 177 135 40 49
378 683 177 136 53 53
377 684 177 135 44 54
377 687 177 117 49 51
378 686 177 119 83 82
380 681 177 103 63 68
381 682 177 52 43 56
383 681 177 43 56 110
380 684 177 73 25 52
380 687 177 106 59 86
382 685 176 66 57 107
382 686 176 77 55 99
368 689 179 159 136 111
369 690 179 148 116 86
371 688 178 134 53 69
371 690 179 148 84 87
369 693 179 133 103 84
370 693 179 142 85 97
371 694 179 151 76 92
372 688 178 139 38 59
372 690 179 131 56 59
375 688 177 126 51 54
374 690 178 127 32 40
372 693 179 131 39 48
372 695 179 157 107 112
375 692 178 142 85 87
375 695 178 93 22 43
371 698 179 119 76 82
368 698 180 150 114 113
369 699 181 136 103 102
371 698 180 118 64 71
369 701 181 127 115 112
368 703 182 99 108 119
370 701 181 112 92 93
371 702 180 71 24 57
373 696 179 141 92 94
373 699 179 94 50 70
375 696 178 118 83 93
375 698 179 104 76 76
374 700 179 121 85 93
375 702 179 115 108 106
373 701 180 98 56 65
373 703 180 83 95 106
376 688 177 133 72 77
377 690 177 129 71 99
377 691 178 127 68 95
378 690 177 112 44 72
376 693 178 101 26 37
377 694 178 117 44 42
379 693 177 126 67 78
379 694 177 132 87 67
380 689 177 128 60 94
380 690 177 120 41 80
381 691 177 113 55 76
382 690 176 83 57 92
380 693 177 128 97 82
380 694 177 146 120 88
382 693 176 172 150 125
382 695 177 177 147 109
377 696 178 140 92 45
377 699 178 138 109 73
378 697 178 143 106 54
379 699 178 143 124 108
377 701 178 122 104 85
377 703 179 111 102 99
378 702 178 135 119 105
380 696 177 169 140 102
380 699 177 162 142 123
383 696 176 126 74 56
383 698 177 174 119 113
380 700 178 145 127 110
381 702 178 159 134 116
383 701 177 147 65 78
382 702 178 176 142 131
327 649 207 82 147 193
327 650 206 83 140 181
325 654 207 109 154 192
326 653 206 100 142 178
327 655 205 71 123 161
334 647 199 100 151 192
331 647 203 127 164 200
329 646 207 104 154 195
330 645 207 113 158 196
330 647 204 98 152 194
330 646 206 92 150 193
334 643 202 166 186 212
332 643 205 137 171 205
332 643 207 115 162 203
335 640 204 101 157 202
334 641 206 137 172 206
334 642 205 139 173 207
333 645 203 118 163 202
333 646 202 129 163 197
335 644 200 113 158 196
334 644 203 99 153 196
334 647 201 103 150 189
332 645 204 127 166 202
333 649 199 161 188 217
334 649 198 125 168 206
335 651 197 145 178 211
335 651 198 130 169 205
332 655 199 93 135 169
335 652 197 88 132 167
335 654 197 111 79 100
335 655 198 139 134 145
330 649 203 110 153 190
331 650 201 126 161 194
331 650 202 121 159 194
329 649 204 84 138 180
328 650 204 71 133 178
330 648 204 101 152 192
329 652 203 96 143 181
329 654 202 106 145 179
331 652 201 111 151 186
330 654 201 101 145 182
330 654 202 110 148 182
332 648 201 146 179 214
332 648 202 104 154 196
332 651 201 120 156 189
332 653 200 125 158 189
326 647 211 132 158 186
326 647 212 139 169 200
327 647 213 111 158 197
325 647 216 100 151 193
327 646 217 121 167 208
327 647 218 130 173 213
323 650 210 123 161 196
323 649 214 117 166 206
323 650 212 115 158 196
322 651 215 87 137 176
323 653 209 187 195 216
323 653 210 135 159 187
323 655 211 95 84 91
321 655 215 84 130 165
322 652 214 98 143 181
322 654 213 79 117 150
325 649 209 112 153 189
324 651 208 89 137 174
325 651 209 100 145 182
326 648 209 112 152 188
327 649 208 93 152 198
326 650 208 92 146 188
325 648 213 137 173 207
324 649 215 105 160 204
324 652 209 130 157 186
324 654 208 131 146 169
325 655 208 99 105 131
323 651 217 84 133 172
321 654 217 73 120 155
321 654 218 88 127 159
322 652 217 95 137 172
322 653 219 94 133 165
321 655 220 110 155 193
323 653 221 108 142 173
322 655 222 96 135 168
323 655 223 81 124 158
325 648 217 105 158 202
324 650 217 102 149 190
325 650 218 88 139 179
326 649 219 87 138 176
326 649 220 97 139 174
327 649 222 99 145 184
326 651 222 95 134 167
327 651 223 93 135 169
325 652 221 84 134 173
325 653 222 96 136 169
331 643 209 130 169 206
331 643 214 124 160 196
329 645 210 100 158 203
328 647 209 127 168 204
328 647 210 111 160 201
330 645 209 110 162 205
331 644 210 125 168 207
329 645 213 122 158 193
329 645 214 126 161 195
328 646 215 116 158 196
331 644 215 120 158 194
332 643 208 122 166 205
332 642 211 110 160 201
334 640 208 134 170 204
334 640 210 140 174 207
333 641 213 136 173 209
332 643 212 130 169 206
332 642 215 102 148 187
334 640 212 138 171 205
335 640 213 137 171 205
335 640 214 134 171 206
329 645 217 135 169 203
328 646 218 123 167 207
330 644 217 141 176 210
330 644 219 152 183 216
329 645 220 114 158 195
328 647 220 111 157 197
328 647 223 105 150 188
330 645 220 129 167 202
330 645 223 80 132 172
332 643 216 121 160 195
332 643 219 138 176 213
334 641 216 137 175 212
334 641 219 140 179 216
332 643 221 142 177 213
332 643 222 117 157 194
334 640 221 168 197 228
334 640 222 169 200 234
335 640 223 181 209 241
328 649 222 102 148 186
325 658 207 111 107 121
327 657 205 73 124 162
327 656 206 80 129 166
326 658 207 100 121 143
325 660 207 112 56 97
327 660 205 74 126 162
326 661 206 50 80 128
327 663 204 78 131 170
325 664 207 125 68 79
326 664 207 97 60 85
327 666 205 23 53 116
326 667 207 125 109 119
327 668 206 74 71 104
327 671 206 64 49 76
333 657 198 122 107 116
333 658 199 150 143 149
334 656 198 135 90 102
335 659 197 173 93 98
333 661 198 159 48 64
333 663 199 147 33 47
334 660 198 153 34 58
334 663 198 169 79 83
328 658 203 72 123 163
329 659 203 83 129 165
330 657 202 106 146 180
331 659 201 121 152 182
328 658 204 71 125 163
329 660 203 74 125 163
329 662 202 78 129 167
330 661 201 96 140 175
330 660 202 103 144 178
331 662 201 102 132 159
328 661 204 61 123 165
332 658 200 160 171 184
332 663 200 124 81 98
333 666 198 164 88 89
335 665 197 147 42 54
334 666 198 174 123 118
333 670 199 148 34 50
334 669 198 173 114 117
334 670 198 151 63 75
328 665 203 87 130 162
329 666 202 83 136 174
330 665 201 89 138 173
330 664 202 66 132 175
331 666 201 105 122 139
328 664 204 66 117 156
328 667 205 41 62 115
329 670 202 61 122 159
330 669 201 92 121 145
330 668 202 70 127 168
331 670 201 149 146 148
328 668 204 56 82 127
328 670 204 47 61 121
329 671 204 35 58 117
332 668 200 147 70 77
322 657 211 132 94 101
322 658 211 138 70 74
321 656 214 81 125 159
321 658 214 81 128 162
322 656 213 71 108 137
322 659 212 129 80 80
323 661 210 149 75 79
323 663 211 156 79 78
321 661 214 102 115 137
321 662 215 99 127 150
322 661 212 137 59 46
322 661 214 111 90 108
323 662 212 150 46 54
324 656 209 137 61 74
324 658 209 156 80 87
324 659 210 145 36 52
324 660 210 140 56 51
325 663 208 135 47 65
320 657 216 92 134 167
320 656 219 83 135 174
320 659 216 119 157 191
320 659 219 60 117 159
321 656 221 89 133 169
320 658 220 79 129 166
320 659 222 85 125 155
322 656 222 75 124 160
320 660 217 105 140 171
320 662 217 127 151 177
320 661 223 54 75 118
323 666 211 169 91 98
321 664 215 121 120 135
321 666 215 121 103 115
323 664 212 144 31 50
322 667 213 140 38 45
322 667 214 135 44 45
321 671 215 153 126 143
323 669 213 145 36 42
323 670 212 148 37 49
322 670 215 132 76 80
325 664 208 137 69 73
324 665 210 143 69 77
325 667 209 140 37 49
325 668 208 147 65 71
324 669 210 147 54 58
325 671 209 146 61 63
325 670 210 137 27 38
326 671 208 153 109 104
320 666 217 172 181 204
320 664 223 126 88 94
321 668 216 102 126 146
320 670 217 115 132 152
321 671 217 155 161 174
337 641 199 139 174 209
337 642 199 127 164 201
338 640 198 141 174 207
339 641 198 138 173 207
339 643 196 125 170 210
338 647 195 144 176 209
336 644 198 120 162 201
337 645 198 122 165 203
337 647 197 113 158 196
338 645 196 125 168 206
338 647 196 127 164 200
341 642 195 132 170 206
342 640 195 144 177 211
342 643 193 124 165 202
342 643 194 128 165 200
341 641 196 131 172 210
341 644 194 126 166 204
341 647 193 126 161 195
341 646 194 143 175 208
343 644 193 138 171 205
342 646 193 159 183 211
336 641 201 131 168 204
336 640 202 124 162 198
336 642 200 123 159 193
336 642 202 123 161 196
337 649 195 135 168 201
339 648 194 137 169 202
338 650 195 119 157 191
336 648 197 106 151 189
336 650 196 89 138 179
337 651 196 99 146 183
337 655 195 154 115 120
339 652 194 121 154 185
336 652 196 85 123 154
340 648 193 102 147 185
341 649 193 102 147 184
341 650 192 138 167 198
340 652 193 121 153 184
340 654 192 106 145 180
341 655 192 118 155 189
345 641 192 140 173 206
344 642 193 136 174 211
346 641 193 117 157 193
347 640 194 111 154 192
349 641 193 99 143 181
349 640 195 117 153 186
349 642 193 88 139 180
350 642 192 101 149 191
349 640 196 114 151 185
351 640 197 125 154 185
337 656 195 153 103 103
337 659 195 143 56 70
339 658 193 146 171 194
336 656 196 164 60 68
337 661 195 142 88 95
338 660 194 117 122 137
338 663 194 55 63 116
336 662 196 156 67 82
340 657 193 140 170 200
341 658 192 99 141 177
341 661 192 102 141 174
341 662 193 140 165 191
342 663 192 116 145 173
338 664 194 60 61 115
339 665 194 47 58 116
339 666 194 56 71 118
337 665 196 166 93 93
337 666 196 141 43 54
338 669 195 91 57 89
339 670 194 53 47 113
336 668 197 148 46 47
336 671 197 144 67 69
341 664 192 87 131 165
340 667 193 134 156 179
342 664 192 87 132 167
340 669 193 41 51 120
340 668 194 56 71 132
341 671 192 78 122 154
342 669 192 91 132 164
320 641 234 101 52 91
320 643 234 113 89 100
323 640 234 133 163 192
323 643 234 84 102 128
320 646 234 113 94 80
322 645 234 67 43 64
323 646 234 62 51 76
324 641 234 104 151 187
324 643 234 109 145 175
327 640 233 114 150 181
327 643 233 128 160 192
324 646 234 67 86 114
326 645 233 98 140 174
327 646 233 118 151 182
323 655 224 60 113 152
327 651 228 103 147 184
325 653 224 84 129 164
325 654 225 75 123 160
326 652 225 90 134 169
326 653 226 84 131 167
327 653 227 80 132 171
325 655 228 84 131 167
327 652 230 94 139 176
326 654 229 86 136 174
326 654 231 87 140 180
320 648 234 93 93 96
321 649 235 127 118 113
322 648 234 103 93 87
323 649 235 105 95 91
320 652 235 99 111 126
320 653 236 93 106 122
321 654 236 80 80 83
322 654 236 84 78 77
324 649 234 93 97 106
324 651 235 78 76 82
326 648 233 110 141 171
327 649 233 103 143 177
327 650 232 86 139 179
326 651 234 102 137 168
325 653 235 90 101 115
325 654 235 89 102 118
326 653 233 91 139 178
326 653 234 104 141 174
326 654 234 114 152 187
331 643 227 121 160 196
331 640 230 101 145 181
331 643 229 121 157 192
331 643 230 100 147 187
329 647 227 111 150 184
330 645 226 105 145 179
330 646 225 95 139 175
329 646 229 110 152 188
329 646 231 79 133 175
330 645 229 122 158 191
330 645 230 114 156 192
333 641 224 112 154 191
333 641 226 128 162 195
332 643 225 96 143 182
332 643 226 110 153 189
334 641 224 137 174 208
332 641 228 113 154 190
332 642 229 123 162 197
328 641 233 113 149 183
328 643 233 115 153 187
328 645 233 114 150 182
328 647 232 94 143 181
329 648 225 102 146 183
328 650 224 96 142 180
328 651 226 93 139 176
329 648 228 119 155 189
328 649 231 87 138 178
328 651 229 103 147 186
328 649 232 81 134 172
323 657 224 77 124 158
322 659 224 74 89 132
323 658 227 124 87 109
320 661 224 107 100 127
320 662 224 128 84 106
321 662 226 122 72 97
322 660 227 128 109 128
322 662 226 123 55 78
323 661 228 111 52 87
323 661 231 122 118 149
323 662 228 127 68 88
323 662 230 127 104 130
324 657 226 93 105 124
324 657 228 87 107 132
325 656 230 71 126 166
324 658 229 74 113 145
324 659 230 81 106 141
323 659 233 97 103 128
320 656 236 103 79 76
320 659 236 142 69 66
322 657 236 135 93 92
321 661 235 129 61 67
323 661 232 113 104 142
323 660 234 114 106 132
322 663 232 102 80 109
322 662 235 118 67 78
320 661 236 146 72 76
320 662 237 154 79 73
325 656 232 91 134 170
324 656 235 114 112 119
324 658 233 102 127 159
324 658 235 97 82 96
320 665 225 130 60 62
321 665 226 138 65 79
320 667 225 131 39 49
321 666 227 134 52 50
321 665 229 142 60 72
321 666 228 141 51 53
321 666 230 135 51 77
322 664 229 131 71 84
320 668 227 170 95 104
320 669 229 146 44 49
320 670 230 148 59 71
321 665 233 125 106 129
321 665 234 122 72 93
321 666 233 116 80 103
320 667 234 119 52 66
322 664 234 94 76 90
320 668 233 103 51 73
320 669 234 113 58 71
326 673 207 121 63 81
327 674 206 108 44 71
327 676 206 114 27 61
326 679 206 137 67 93
326 680 206 130 38 62
326 682 207 128 34 38
327 683 207 136 67 59
327 685 207 138 108 80
333 674 199 136 35 45
334 673 199 163 101 101
334 675 198 131 43 47
333 677 199 143 54 59
334 678 199 132 44 45
335 679 199 135 65 74
329 675 203 67 69 125
331 674 201 146 124 126
331 675 202 95 95 109
329 672 204 34 53 110
328 675 205 96 45 88
329 678 203 156 136 110
330 677 202 128 118 107
330 678 202 140 121 100
331 679 202 133 106 78
329 676 204 83 73 95
328 679 205 136 89 89
333 672 200 140 39 53
332 675 201 125 68 70
332 677 200 172 127 122
332 679 201 128 75 81
335 680 198 148 72 83
335 684 199 121 64 67
330 680 202 142 120 97
330 682 203 160 138 114
331 683 203 143 120 92
329 680 204 147 120 83
329 683 204 159 128 88
330 684 203 154 130 107
329 684 204 143 112 76
329 686 205 132 109 85
329 686 206 130 103 67
330 686 204 130 109 89
331 687 204 127 107 91
333 681 200 135 62 82
333 683 201 158 106 115
334 681 200 138 71 83
333 685 201 141 66 79
333 684 202 142 85 72
333 686 202 173 132 123
334 685 200 149 95 109
334 687 201 146 98 111
321 673 215 109 92 109
323 673 212 143 29 42
322 673 215 130 64 83
322 674 214 151 79 86
321 677 215 152 94 101
323 677 212 141 29 42
322 677 215 134 46 50
322 678 214 152 71 67
325 673 209 133 43 42
325 672 210 143 49 52
324 674 211 147 68 74
326 672 208 125 47 62
325 677 209 130 39 51
325 676 210 127 28 35
324 678 210 150 81 81
325 679 210 132 36 42
324 679 212 142 28 53
321 673 216 80 90 121
320 673 219 79 30 102
320 674 218 79 51 107
320 677 216 179 147 143
320 677 218 137 114 101
321 678 216 168 138 108
321 683 215 156 126 97
323 681 213 164 92 95
322 682 213 160 86 81
323 683 213 141 36 47
321 686 215 137 116 96
323 684 213 143 30 51
322 686 213 147 90 91
323 687 213 138 89 89
325 681 209 151 92 89
325 680 210 134 62 64
324 682 211 137 32 42
326 680 208 119 38 49
325 685 209 123 78 102
325 684 210 109 40 77
324 686 211 113 10 54
326 684 208 113 66 89
326 686 209 113 81 76
320 680 217 172 138 93
320 682 216 163 135 114
321 683 216 154 130 107
320 686 216 134 116 99
329 688 205 134 116 101
329 689 206 115 107 103
329 691 206 86 88 111
331 689 204 126 113 103
331 690 205 97 95 99
328 693 207 44 40 67
328 694 207 56 59 77
329 695 207 91 92 102
330 692 206 50 43 82
330 694 206 85 85 96
333 688 203 149 121 104
333 690 202 145 132 123
334 689 201 86 43 62
334 688 202 143 105 107
335 690 201 80 29 59
332 688 204 137 117 100
333 692 203 91 95 101
335 692 200 81 47 57
335 694 201 98 77 80
335 695 202 62 40 35
332 695 204 73 83 111
329 696 207 116 121 132
330 696 206 98 107 119
331 698 205 96 113 131
331 699 206 88 100 113
331 701 206 122 123 130
333 696 203 68 72 81
334 696 202 68 53 46
335 697 202 102 88 76
334 699 202 124 108 95
332 696 205 73 92 116
332 698 205 96 105 117
332 699 206 79 91 103
335 701 202 102 98 98
335 703 202 147 129 120
333 700 205 110 108 111
333 702 204 103 103 108
334 701 204 100 101 104
321 690 215 103 113 126
323 688 213 142 119 111
322 689 215 97 103 114
322 690 214 105 110 118
321 692 215 83 90 111
322 693 215 78 103 128
322 694 215 115 128 144
324 688 210 88 38 59
324 690 211 77 36 41
326 688 208 119 84 63
326 690 209 88 91 105
326 690 210 80 78 94
324 692 211 63 43 42
325 694 210 85 87 91
327 692 208 94 101 126
326 693 210 86 92 102
326 695 210 123 126 133
324 694 213 85 68 53
320 688 217 92 85 92
320 690 217 74 76 86
320 692 217 120 117 124
321 693 217 56 80 113
321 694 217 77 100 127
320 695 218 119 134 158
322 695 216 93 108 124
323 697 214 84 82 81
323 699 215 92 89 102
325 696 211 187 166 148
326 696 210 166 155 149
327 698 209 141 132 128
327 698 210 134 123 114
324 697 213 89 85 83
324 699 213 100 105 114
324 699 214 101 104 115
327 701 210 114 98 91
324 701 213 134 112 108
324 700 214 122 114 117
325 703 213 123 100 84
325 703 214 126 98 74
327 703 212 136 126 120
320 697 219 135 131 137
320 698 219 119 112 114
321 699 219 118 106 99
322 698 216 101 93 99
320 698 220 123 116 118
321 700 219 126 113 105
321 702 219 112 96 86
322 701 216 100 78 76
322 702 216 111 89 75
322 702 218 124 104 88
320 703 220 65 54 53
328 694 208 43 46 70
329 696 208 127 135 147
329 698 208 137 135 139
329 700 209 117 118 126
329 702 209 136 115 97
328 703 211 127 112 106
330 702 208 145 123 107
339 672 194 57 59 97
339 674 195 101 66 91
337 672 197 160 103 100
337 674 196 115 23 57
338 672 196 107 62 65
338 677 195 112 20 65
339 679 195 124 42 75
337 677 196 133 84 91
337 678 196 115 42 63
336 679 198 130 60 62
341 672 192 79 123 153
341 674 193 50 87 123
341 675 194 43 48 109
341 676 193 60 67 117
341 677 194 71 47 101
340 679 194 110 73 86
342 676 193 97 106 130
342 678 192 116 110 116
343 679 192 136 105 105
337 680 196 104 31 55
337 681 198 125 63 71
336 683 198 152 118 109
338 681 196 142 69 74
339 684 195 152 99 46
337 685 197 114 65 55
337 684 198 98 28 37
336 686 199 89 40 69
338 684 196 144 74 42
339 685 196 155 110 54
339 686 196 152 114 56
340 680 195 136 79 91
340 682 194 152 124 87
342 680 192 135 118 107
342 682 193 158 131 108
340 684 195 148 112 70
340 687 195 161 127 83
343 684 192 129 78 56
342 687 193 154 130 102
342 687 194 152 131 107
344 685 192 155 101 87
339 688 195 137 108 72
336 689 199 104 51 79
337 690 198 123 87 64
338 689 197 135 109 99
339 690 196 132 114 96
336 693 199 80 88 96
336 694 199 81 95 109
338 693 197 61 74 96
338 693 198 90 110 129
340 688 195 140 116 89
341 689 195 134 114 97
341 691 194 128 114 101
343 689 193 148 117 108
343 691 193 137 116 103
341 692 194 120 109 101
343 692 193 127 113 102
343 694 193 98 105 115
343 694 194 84 97 113
340 694 196 44 32 65
336 690 200 92 34 61
336 695 200 72 72 77
339 696 197 55 56 61
339 698 197 81 92 108
339 699 198 85 99 114
339 700 197 148 155 168
339 700 198 139 144 153
338 703 199 131 122 120
342 696 194 80 94 120
342 698 195 52 76 98
343 699 195 91 109 130
341 696 196 83 83 95
341 699 196 61 81 109
343 702 195 104 98 96
341 700 197 105 123 144
341 702 196 76 84 95
342 701 196 85 99 117
336 696 200 84 91 101
336 698 201 146 135 128
336 700 200 158 142 128
337 701 200 107 101 98
337 703 200 112 85 77
345 688 192 149 87 80
345 690 192 132 55 69
344 693 193 118 110 107
345 694 192 111 95 87
344 696 193 85 84 88
345 697 193 63 49 53
344 698 194 66 71 81
347 697 192 75 68 72
347 699 192 77 80 86
344 701 195 103 96 96
345 702 194 104 92 83
347 700 192 103 100 100
347 703 193 127 118 114
348 701 192 122 123 126
348 703 193 123 115 112
352 642 192 141 171 202
353 643 192 151 179 210
354 643 192 150 179 209
354 642 194 150 179 209
352 641 196 135 161 189
353 640 198 144 170 199
355 641 197 142 170 201
355 640 199 140 169 199
356 643 192 130 165 200
356 642 194 149 177 208
358 641 195 151 177 206
358 643 193 142 173 206
356 641 196 122 158 192
356 640 199 124 156 187
358 640 197 156 181 211
359 641 196 146 171 200
354 640 200 153 177 206
357 640 201 137 162 189
360 641 194 123 161 196
360 642 192 143 170 199
361 643 192 136 164 193
362 640 195 138 172 207
362 642 192 125 158 191
361 640 196 140 172 204
365 641 193 146 175 205
365 641 194 152 176 204
366 640 194 136 163 192
367 641 194 132 161 192
367 643 192 139 164 192
369 641 194 136 168 201
369 642 193 129 159 190
370 641 194 130 165 200
370 643 193 146 171 199
371 642 195 133 165 198
370 640 197 181 199 223
370 644 192 141 168 197
372 643 193 139 167 196
373 643 195 163 185 212
372 640 196 151 174 201
373 641 197 197 213 235
375 641 197 144 175 207
374 642 196 162 187 216
372 645 192 133 163 194
373 646 192 139 166 195
375 644 195 143 175 207
375 646 193 157 181 210
376 641 198 136 169 201
376 642 197 140 173 206
377 642 198 168 191 218
378 642 197 175 193 217
379 642 198 161 172 197
376 645 194 153 181 211
377 646 193 145 173 203
378 645 194 155 183 213
378 647 193 152 179 209
378 644 196 148 175 204
381 643 197 168 188 214
381 642 199 96 122 164
382 642 198 165 184 211
380 645 195 173 193 219
380 646 195 176 195 221
382 646 195 171 187 210
383 647 195 164 184 209
381 644 197 183 200 225
383 644 197 159 186 216
383 646 196 179 196 219
381 640 200 91 102 151
377 648 192 143 173 205
380 648 193 168 188 214
382 648 193 151 176 205
383 648 194 137 169 203
350 704 191 119 125 137
350 706 191 143 133 135
351 710 191 149 123 96
344 767 128 181 156 134
346 765 128 187 146 100
346 767 129 160 126 91
349 762 128 152 128 104
351 763 128 191 157 121
349 764 128 163 135 112
349 766 129 179 150 121
350 764 129 179 147 114
350 766 129 193 158 120
351 767 131 189 170 163
330 766 191 190 136 98
333 761 191 174 123 90
333 763 191 181 128 95
335 761 190 167 119 88
335 763 190 174 123 93
333 765 190 183 131 100
332 767 191 188 135 102
334 765 190 182 131 99
335 766 189 181 131 96
351 744 191 188 173 163
349 751 191 131 136 146
350 750 191 94 111 129
337 756 191 106 79 52
336 759 191 150 108 76
338 757 191 115 84 60
339 759 189 139 99 71
340 756 191 100 75 53
341 757 191 105 83 60
340 758 190 120 88 62
343 756 191 97 71 49
343 758 189 129 93 71
337 761 189 159 112 83
336 762 189 168 117 87
338 760 189 149 106 77
338 763 189 170 120 88
337 764 189 174 125 91
337 767 188 182 133 97
339 765 188 174 125 91
339 766 188 177 127 93
341 761 189 155 111 81
341 762 189 160 114 81
343 761 188 150 107 75
343 762 188 155 113 79
340 764 189 170 122 87
340 767 188 178 130 93
343 764 188 163 119 86
343 767 188 173 128 94
345 759 189 134 100 68
346 756 191 150 123 93
347 759 189 129 94 73
347 758 191 126 95 63
349 754 191 92 119 143
351 752 191 103 123 142
351 754 190 117 123 132
349 756 191 115 126 139
348 758 191 143 118 93
350 756 190 100 128 155
351 757 190 109 128 148
350 759 190 120 100 81
344 761 188 149 107 74
344 762 188 155 113 80
346 761 188 141 105 75
347 762 188 148 110 81
344 766 187 168 123 92
346 765 187 160 117 86
347 766 187 166 124 92
348 763 187 155 115 86
348 761 188 140 105 76
348 762 188 149 112 84
351 760 189 104 77 50
348 764 187 160 118 90
348 767 187 169 126 94
351 764 187 160 118 93
351 766 187 168 126 97
372 705 128 124 46 37
372 707 128 101 33 35
374 705 129 72 67 70
374 706 129 87 80 82
373 708 128 78 43 52
374 710 128 112 75 79
376 704 130 40 49 93
376 707 129 48 48 98
378 705 130 113 120 132
378 707 129 104 113 124
376 708 128 49 54 99
377 709 129 52 52 96
378 708 129 108 116 130
379 709 130 119 126 132
379 710 129 109 113 116
381 705 131 128 130 135
381 707 130 132 98 100
382 707 130 148 32 49
382 704 132 96 96 97
381 709 130 127 38 56
381 710 130 117 26 35
383 709 130 144 46 38
376 712 128 54 41 103
376 715 128 148 132 117
378 713 128 111 119 127
378 715 128 130 115 114
377 716 128 135 132 130
377 719 128 136 72 76
378 718 128 155 41 59
380 712 129 90 29 29
380 714 129 111 22 29
382 712 129 87 39 31
383 712 130 94 25 26
383 715 129 125 33 32
380 718 128 159 54 64
381 719 129 156 23 35
383 717 129 154 42 36
376 720 128 130 104 84
376 723 128 142 91 57
378 721 128 139 21 36
378 722 129 117 21 32
376 724 128 137 82 66
377 726 128 108 43 38
378 725 129 120 36 41
379 726 129 112 23 32
381 721 129 140 28 25
382 720 129 156 20 25
382 722 129 121 26 38
380 724 129 112 32 33
380 727 129 112 63 44
382 724 130 110 43 44
382 726 130 127 91 74
377 729 128 118 55 62
379 728 129 102 27 28
379 730 129 93 65 56
377 735 128 102 103 106
379 733 129 87 109 133
379 734 129 65 76 108
381 729 129 124 94 59
381 730 130 127 121 119
383 729 130 142 118 92
383 731 130 118 112 111
381 732 130 42 72 112
380 735 130 83 48 104
382 733 130 63 30 83
382 734 131 81 43 102
353 704 189 95 108 125
353 705 190 83 90 103
352 707 191 120 104 96
354 705 188 109 109 116
354 707 189 128 122 128
352 708 190 136 110 88
353 709 190 130 104 78
353 711 191 126 90 50
354 709 190 118 97 81
355 711 190 121 107 97
357 706 187 139 125 112
358 705 187 160 144 130
358 707 187 115 109 105
356 705 188 90 81 79
358 708 187 128 125 126
356 709 189 86 81 80
356 711 189 118 104 93
358 709 188 131 114 111
359 710 188 102 75 77
353 712 190 115 91 76
352 715 191 96 99 105
355 712 190 128 116 107
355 714 190 103 88 83
353 717 191 87 81 85
354 717 190 78 84 95
354 719 191 73 59 56
356 712 190 123 108 98
356 714 190 121 103 92
358 713 189 120 85 65
358 715 189 122 101 82
356 716 190 101 106 117
357 719 189 130 123 124
358 716 189 106 99 95
358 719 189 113 110 117
366 705 183 63 81 101
367 706 183 75 88 104
360 704 186 129 137 153
360 707 187 107 103 108
362 705 185 71 85 104
362 707 185 131 143 161
360 708 187 124 120 124
361 709 187 133 122 114
363 709 185 92 100 114
362 710 186 103 96 101
363 711 186 62 56 55
364 704 184 92 95 99
364 706 185 85 103 127
366 705 184 51 72 96
364 709 185 83 90 99
365 710 185 110 109 112
366 709 184 89 89 92
366 710 185 121 118 119
361 712 187 130 95 76
363 713 187 120 104 94
360 712 188 110 76 64
360 714 188 132 102 70
361 715 188 129 109 92
362 717 187 76 65 66
363 718 187 95 94 96
360 717 189 123 109 111
361 718 188 100 106 118
362 719 188 145 146 162
365 713 186 134 116 100
365 715 186 141 116 92
366 713 186 142 118 96
366 715 186 140 107 85
365 717 187 132 116 102
367 716 185 107 69 64
367 717 186 116 93 82
367 718 186 142 126 122
353 723 191 96 87 78
354 722 191 101 95 93
353 725 191 144 130 121
355 724 190 167 149 136
355 726 190 148 132 121
357 721 189 162 153 150
357 722 189 161 148 140
357 723 190 145 126 110
359 721 188 105 101 101
359 722 189 143 135 132
356 724 190 156 135 120
357 727 189 143 128 116
358 724 189 162 150 144
359 725 189 128 116 110
359 727 188 107 98 92
354 728 191 151 133 127
355 729 191 147 125 108
355 731 190 139 120 104
353 735 191 114 92 66
355 733 190 150 125 101
355 734 190 152 129 105
356 729 190 125 109 96
356 730 190 138 122 112
358 729 189 124 110 99
359 730 188 124 108 94
356 733 190 151 124 95
356 734 190 169 142 113
359 732 188 166 141 117
358 735 189 173 147 123
363 720 187 99 93 92
363 723 187 94 94 98
360 722 188 57 59 61
362 721 188 44 37 52
362 725 187 119 116 117
363 726 187 186 171 163
361 724 188 50 56 60
361 727 188 96 94 96
365 721 186 148 147 158
365 722 186 146 140 144
366 721 186 106 104 110
366 722 186 121 115 115
364 725 186 174 160 153
364 727 186 162 144 130
367 724 185 112 104 100
366 727 185 145 133 126
361 728 187 140 131 127
362 729 187 151 136 125
362 730 187 143 126 113
360 729 188 102 97 95
360 733 187 139 122 109
361 734 187 141 123 107
362 733 187 146 124 104
362 735 186 140 117 93
360 733 188 140 123 109
365 728 186 136 123 114
364 731 186 140 124 111
367 728 185 63 59 63
367 731 185 146 128 113
365 732 186 161 145 134
364 734 186 194 171 155
367 733 184 161 146 137
367 734 185 175 158 148
368 705 183 52 52 68
369 706 182 88 77 71
371 704 181 96 89 103
371 706 181 73 85 96
371 707 182 94 98 103
370 708 182 132 121 114
371 709 183 165 153 144
371 711 183 146 134 126
373 704 181 89 106 121
373 706 181 58 81 102
374 705 181 56 77 101
374 707 180 47 32 63
373 709 181 49 58 90
372 711 182 139 136 138
375 708 180 73 71 75
374 711 181 100 116 133
368 709 184 95 83 72
369 711 184 114 113 119
371 713 183 107 99 100
371 718 183 147 133 127
372 713 183 106 105 112
373 714 182 112 115 124
375 712 181 92 115 137
375 714 181 91 96 105
372 717 183 131 111 99
372 718 183 134 110 100
375 717 181 136 107 85
374 718 182 140 105 103
368 712 185 115 111 111
368 714 185 132 100 91
369 715 185 86 66 61
368 716 185 97 75 68
369 717 185 126 111 106
370 716 184 105 98 99
370 719 184 87 71 71
377 704 179 70 65 72
378 704 179 97 96 99
378 706 179 70 71 102
376 705 180 45 22 66
378 708 179 45 55 98
378 711 179 89 110 130
377 708 180 59 41 85
377 711 180 86 109 133
381 704 178 142 111 98
381 707 178 126 117 120
383 704 178 132 73 83
383 707 178 99 53 70
381 709 178 87 73 90
381 711 178 70 62 59
382 710 178 60 41 45
378 713 179 64 66 77
379 715 179 109 101 97
377 712 180 98 123 149
377 715 180 110 116 125
378 715 180 95 94 102
376 717 181 143 118 94
376 718 181 155 124 98
378 717 180 103 103 107
379 719 180 133 124 124
381 713 179 172 151 133
381 715 178 199 176 157
383 713 178 92 100 110
380 716 179 158 144 133
380 719 179 152 141 138
382 717 179 142 129 120
382 719 179 107 99 99
371 722 183 96 95 101
371 727 183 166 154 145
372 722 183 110 104 107
374 721 182 111 97 88
375 722 182 126 113 105
373 725 183 80 76 75
373 727 182 120 111 107
375 725 182 91 94 105
368 720 185 80 68 77
368 723 185 46 40 54
370 720 184 71 66 71
370 723 184 103 97 97
369 724 184 45 34 36
368 727 185 49 49 51
371 724 184 72 70 73
370 729 183 157 135 117
371 730 183 172 156 146
371 733 183 168 152 143
372 728 183 173 162 157
373 729 183 151 139 133
373 731 182 71 63 60
375 729 182 70 75 81
372 732 183 149 138 134
372 735 183 136 124 116
375 732 182 181 170 165
375 735 182 168 141 123
369 728 184 160 152 150
369 730 184 168 149 133
370 731 184 135 113 91
368 734 184 149 131 118
370 733 184 141 120 102
377 720 181 131 102 82
377 723 181 65 55 60
378 722 180 123 105 89
376 724 181 89 93 109
376 727 181 43 52 66
378 725 180 125 110 110
378 726 181 92 93 103
380 720 179 156 128 120
380 723 179 117 74 56
383 720 178 140 139 144
383 722 179 122 101 96
380 724 179 120 86 64
382 724 179 111 80 52
382 727 179 105 95 97
380 726 180 103 93 95
377 728 181 66 73 81
377 731 181 159 144 134
378 729 180 117 120 127
378 731 181 155 141 133
377 732 181 155 136 125
377 733 182 164 145 132
378 732 181 164 147 138
378 735 181 146 130 119
382 728 179 93 96 104
382 731 179 44 40 50
381 728 180 101 105 117
381 731 180 35 26 43
383 732 179 115 111 113
380 732 180 76 63 60
380 734 181 64 60 59
382 733 180 131 125 123
359 747 128 161 142 127
359 748 128 174 155 140
358 750 129 168 148 134
359 751 130 163 141 123
367 743 128 211 148 63
360 747 128 168 149 136
362 744 128 139 119 113
362 746 128 145 123 101
363 747 130 144 127 115
361 749 130 146 133 129
361 750 131 105 92 90
363 748 130 97 79 79
362 751 131 56 50 64
363 751 132 192 172 159
365 745 128 180 134 84
364 747 130 174 150 140
366 745 129 194 142 97
366 746 130 160 139 134
364 748 131 112 84 65
366 749 131 184 165 150
364 751 132 209 185 167
367 749 132 178 158 144
367 751 132 210 184 165
355 758 128 167 146 128
357 753 128 165 145 130
357 754 129 169 147 128
359 752 129 164 138 111
358 754 130 165 143 124
356 756 128 155 135 119
357 757 130 147 124 102
357 758 130 157 136 117
358 756 131 153 129 105
358 758 131 159 134 110
359 759 132 163 134 105
352 762 128 194 165 131
353 763 129 179 155 130
354 761 129 157 135 114
354 762 130 144 122 101
355 763 131 130 108 88
353 764 130 155 123 95
353 766 130 147 105 72
354 765 131 140 109 83
353 767 132 172 136 103
355 767 132 164 138 113
357 760 131 153 122 87
357 762 131 158 128 94
358 761 132 169 138 103
358 762 133 169 134 91
356 764 131 141 116 89
357 765 132 158 124 84
357 766 132 158 127 92
359 764 133 151 119 80
358 767 134 140 114 89
360 753 131 163 147 136
361 752 132 89 86 93
361 755 132 146 129 113
363 752 132 201 179 162
362 755 133 177 153 132
360 757 132 168 141 116
360 758 132 169 139 106
361 758 134 162 139 118
362 757 134 160 136 114
363 758 134 138 116 95
365 753 133 175 150 128
365 754 134 152 126 101
367 753 133 171 147 128
367 754 134 150 129 118
365 757 134 161 139 118
365 758 135 170 147 125
367 757 134 106 86 67
360 760 133 144 119 94
360 762 133 152 128 105
362 760 134 143 122 101
362 762 134 134 114 95
360 764 134 124 99 69
361 765 135 129 104 78
361 766 135 139 114 89
363 765 135 156 122 77
364 761 135 150 128 108
365 762 135 181 153 126
367 761 135 158 133 106
362 767 136 166 136 102
366 762 136 174 147 119
364 764 136 154 124 88
364 767 136 150 119 84
366 764 136 158 127 93
367 765 137 175 142 105
366 767 138 164 133 98
370 743 128 180 143 114
372 742 128 134 107 97
374 740 128 150 132 118
374 742 129 166 141 122
368 744 128 201 145 104
369 746 129 170 138 124
370 744 128 184 152 127
371 745 129 180 137 95
371 746 130 204 148 86
369 748 131 157 148 147
371 749 131 156 131 112
369 750 132 63 60 73
370 751 132 55 40 56
372 745 129 199 154 112
372 747 130 189 142 87
374 744 129 191 146 109
375 745 130 172 108 72
375 747 131 168 124 95
374 748 131 166 118 70
372 750 132 141 120 102
373 751 133 171 150 137
374 751 133 160 138 122
376 737 128 152 138 128
377 738 128 169 164 163
378 736 129 68 90 119
379 737 130 72 63 103
379 739 130 108 130 152
377 740 129 143 135 135
376 743 130 146 127 118
378 740 130 121 129 141
379 741 131 110 113 119
379 743 131 132 122 117
381 737 131 78 57 97
381 739 131 73 107 136
382 736 132 67 55 101
382 739 132 85 109 130
380 740 131 96 118 139
381 740 132 89 107 125
381 743 132 131 118 110
383 740 133 67 69 81
383 742 133 119 102 89
377 744 130 137 122 111
376 747 131 158 127 104
378 745 131 119 103 93
379 745 132 131 113 98
376 748 131 155 129 115
376 750 132 116 90 95
377 751 134 159 141 128
379 748 133 190 151 108
378 751 134 164 148 138
380 744 132 125 111 101
381 745 133 149 128 111
381 747 133 199 162 121
383 744 134 132 120 111
382 747 135 192 155 113
380 749 133 207 164 116
381 749 135 201 157 102
382 748 134 200 161 115
380 751 136 153 137 126
383 749 136 178 135 95
383 750 136 171 132 101
368 753 133 81 69 77
368 754 134 58 44 54
370 753 133 103 92 84
370 754 134 167 148 134
368 757 134 151 130 112
369 758 135 178 151 126
371 756 134 152 127 104
372 752 133 192 170 149
372 754 133 202 174 150
373 755 135 173 150 129
375 752 134 180 162 149
375 754 134 183 167 155
372 757 135 157 134 112
374 756 135 173 151 131
372 758 136 171 148 128
374 756 136 168 147 131
374 758 136 173 153 139
375 759 138 199 175 155
369 761 136 163 136 109
369 762 137 178 139 96
371 761 136 176 149 123
371 762 137 212 177 137
369 764 137 193 155 112
368 767 138 187 151 110
370 764 137 200 162 115
371 764 139 199 167 131
371 766 139 194 158 117
372 760 137 182 157 135
372 762 137 221 187 147
373 763 139 204 173 139
375 760 139 183 160 141
374 763 139 188 161 136
372 764 139 195 165 133
373 765 140 168 140 112
373 766 141 164 132 99
375 764 140 174 150 128
375 766 141 181 150 118
376 752 134 159 140 125
377 753 135 125 109 100
378 753 135 148 128 114
377 755 136 203 182 168
378 754 136 202 180 162
379 755 137 212 194 182
376 757 137 194 175 164
376 758 138 193 172 155
377 759 139 183 162 145
379 756 138 199 183 172
378 759 139 176 157 143
379 759 140 157 139 125
381 752 136 135 123 117
380 754 138 190 173 161
381 755 139 123 107 99
383 752 138 141 123 113
382 755 139 90 64 55
383 755 140 109 92 84
380 757 140 128 103 86
380 758 141 147 128 119
382 756 141 154 134 120
382 758 141 182 162 146
383 759 143 193 172 157
377 760 140 172 152 135
377 762 140 169 150 135
378 761 140 170 151 137
378 763 141 194 168 146
379 763 142 202 178 157
377 764 142 197 167 140
377 766 142 187 160 136
378 765 143 178 151 126
378 767 143 176 153 133
380 761 142 173 154 139
380 763 143 200 177 158
382 761 142 178 154 134
382 763 143 182 160 143
378 766 144 169 144 121
383 761 144 169 144 122
383 763 145 178 154 133
380 766 144 159 130 98
381 767 145 177 147 113
383 764 145 188 158 124
382 766 146 180 144 101
383 766 147 199 158 108
352 736 191 109 79 50
352 739 191 167 131 90
354 737 190 149 130 114
355 738 190 174 148 123
353 741 191 172 155 143
353 743 190 158 148 143
355 741 190 169 153 142
356 736 189 188 151 109
356 737 190 183 147 106
356 738 190 182 149 113
359 737 188 118 99 82
356 740 189 171 153 140
356 743 189 64 70 80
358 741 188 128 101 71
359 742 188 167 137 105
353 744 191 172 161 156
353 746 190 135 132 134
355 744 190 119 126 143
354 747 190 120 120 124
352 749 190 152 148 149
352 750 190 119 128 140
354 749 189 150 132 121
354 750 189 135 85 86
359 747 187 158 147 143
357 745 188 179 167 162
357 746 189 178 164 157
359 744 188 177 157 141
359 747 188 176 163 157
356 748 189 181 166 156
357 749 189 177 160 148
357 751 188 155 142 132
358 750 188 93 88 89
361 736 187 133 111 92
361 739 187 125 111 98
363 736 186 154 124 91
362 739 187 150 128 105
360 738 188 117 107 101
361 741 187 164 145 129
362 740 186 185 150 110
363 741 186 176 138 91
363 742 186 165 136 104
365 736 185 180 147 110
364 739 185 172 140 110
366 737 185 160 137 115
366 739 184 141 120 103
364 741 185 151 119 84
365 742 185 125 97 75
366 740 185 138 109 93
366 742 184 130 113 97
367 743 184 173 146 118
360 746 187 174 161 154
362 744 187 170 151 137
362 746 186 97 81 70
360 748 187 96 99 109
360 751 187 149 138 132
362 749 186 157 152 153
363 750 186 189 174 165
365 745 185 165 135 101
365 746 185 178 154 132
366 745 185 167 146 128
367 746 184 171 150 134
365 749 185 180 164 154
365 750 185 158 145 138
367 749 184 113 108 106
367 750 184 102 107 119
352 753 190 171 167 169
352 754 190 140 137 139
354 753 189 136 135 143
355 754 188 93 119 141
353 756 189 98 106 118
352 759 189 109 97 86
354 756 189 97 85 78
354 758 189 153 139 131
357 755 187 132 116 111
358 754 187 153 121 118
356 752 189 175 148 144
356 755 188 123 122 124
357 756 187 106 91 82
358 757 187 122 110 105
359 758 186 160 151 148
357 756 188 96 82 74
352 763 187 153 112 86
355 763 187 156 132 111
353 761 188 159 133 109
355 760 188 160 141 126
352 765 187 164 122 94
352 767 186 171 128 98
354 765 186 158 121 94
354 766 186 167 128 100
356 761 187 169 160 157
357 762 187 167 162 164
358 761 187 115 127 142
358 763 186 105 102 103
356 764 187 130 103 84
357 767 185 170 129 107
358 764 186 111 95 80
358 767 185 167 128 103
367 758 183 173 160 152
361 752 187 151 133 117
360 755 187 188 147 142
362 753 186 163 147 135
362 754 186 160 143 130
360 757 186 137 133 133
361 758 186 77 95 120
363 757 185 130 114 110
363 758 185 130 124 126
364 753 185 100 104 115
365 754 185 141 136 136
366 753 185 160 153 151
366 755 184 164 146 131
365 756 184 125 74 62
364 759 184 139 136 140
366 757 184 145 101 93
367 758 184 166 151 141
366 762 183 122 117 117
366 765 183 69 58 57
367 766 183 118 113 112
361 760 186 139 139 145
360 763 186 108 114 122
363 761 185 149 146 149
360 764 185 127 111 97
360 766 185 182 159 138
362 765 185 148 143 144
362 766 184 195 181 174
363 767 184 174 160 152
365 760 184 84 99 116
365 763 184 112 96 81
364 764 184 114 109 108
364 767 184 164 151 143
366 766 184 74 60 60
371 737 183 155 136 123
369 741 183 175 147 120
371 740 183 155 134 116
371 743 183 131 110 93
372 738 183 159 143 131
374 737 182 140 118 98
375 738 182 122 104 94
373 741 183 141 118 101
373 743 182 152 123 99
375 741 182 169 143 123
368 736 184 132 114 96
368 739 184 155 129 102
370 738 184 185 165 151
369 741 184 178 148 115
369 744 183 159 132 119
370 745 183 116 85 71
371 746 183 146 123 105
369 751 183 181 164 152
370 750 183 175 155 140
372 745 182 140 116 90
372 746 183 139 117 94
374 745 182 193 154 107
374 746 182 191 146 86
372 749 182 186 162 143
373 750 182 152 132 115
374 748 182 168 134 99
375 751 181 188 152 112
369 744 184 151 122 101
369 747 184 132 103 70
368 750 184 143 134 131
376 736 182 159 133 117
377 739 181 154 137 125
378 736 181 156 143 136
378 739 181 153 135 120
376 740 182 172 153 139
377 743 181 167 138 108
379 740 181 157 137 120
379 742 181 164 141 119
380 736 181 138 125 118
380 739 181 160 142 128
382 737 180 139 121 104
383 738 180 118 107 99
380 741 181 152 129 109
381 742 180 134 113 94
383 741 180 152 131 120
376 744 181 168 135 97
376 747 181 125 97 70
378 745 181 140 114 89
378 747 180 149 122 93
376 749 181 127 100 72
377 750 181 162 138 114
378 749 181 153 130 105
378 751 180 194 161 127
383 746 179 158 136 115
381 745 180 164 140 117
382 744 180 174 152 133
382 747 180 162 141 123
383 749 179 125 101 90
380 748 180 176 147 116
380 751 180 127 91 59
379 767 175 167 152 140
380 766 175 178 161 149
382 764 175 106 93 105
383 765 174 144 143 148
383 767 173 191 173 159
369 752 183 187 171 161
370 752 183 183 168 157
370 754 183 115 112 122
371 755 183 120 125 140
368 758 183 169 158 151
370 757 183 119 121 126
370 759 182 118 62 74
372 753 182 81 82 95
373 754 182 153 144 141
375 753 181 188 163 141
375 754 181 192 173 159
372 757 182 157 153 154
372 758 182 141 142 148
374 757 181 171 156 147
374 759 181 97 93 98
369 752 184 187 171 161
368 756 184 136 127 122
369 761 183 160 143 138
369 763 182 178 166 160
370 762 182 173 157 151
368 765 183 122 110 103
368 767 183 148 149 155
370 764 182 123 128 141
370 767 181 159 151 149
372 761 181 161 157 157
372 762 181 146 150 158
374 760 181 110 106 105
374 763 180 168 111 115
375 765 179 176 172 172
375 767 179 79 124 158
372 766 181 138 146 158
373 767 180 124 129 137
375 765 180 185 174 170
377 752 181 202 176 154
377 754 181 179 156 138
379 752 180 168 138 113
379 755 180 165 136 105
379 759 179 204 185 174
377 757 180 144 136 135
377 759 180 190 173 163
378 758 180 205 187 177
381 754 179 188 154 119
383 753 179 165 139 112
383 754 179 183 154 124
381 753 180 139 94 59
381 756 179 206 182 162
381 758 178 155 137 124
382 756 179 209 186 169
382 759 177 132 123 121
382 759 178 82 75 79
379 760 179 164 150 143
378 762 179 134 130 131
376 760 180 169 156 145
376 763 180 178 128 123
376 765 179 190 181 178
377 766 177 170 151 141
377 766 178 174 160 154
378 764 179 162 152 147
378 767 176 177 154 147
378 766 178 158 115 108
380 761 178 140 138 141
381 762 177 197 179 167
382 760 177 156 149 148
382 762 176 201 182 169
380 764 177 178 161 148
382 764 176 167 152 143
331 706 207 130 111 99
331 710 207 101 98 100
335 704 203 133 109 86
335 706 202 127 99 75
333 705 204 149 134 124
333 706 205 120 108 101
334 704 204 128 112 104
334 709 203 114 111 112
335 710 203 88 85 88
332 708 206 82 85 90
332 710 206 53 58 64
333 711 206 29 30 43
334 711 204 49 43 51
331 714 207 148 137 131
335 715 203 165 154 149
332 713 206 97 91 89
332 714 207 123 114 110
334 712 204 31 27 39
335 713 204 55 57 62
335 714 204 107 103 103
332 717 207 149 134 124
333 718 206 83 78 78
335 716 204 143 136 134
335 719 204 142 127 114
325 705 213 88 78 79
325 705 214 109 105 106
325 707 214 127 120 118
326 705 213 78 71 74
327 706 212 92 87 85
325 708 214 109 91 86
325 710 215 174 161 154
327 708 213 47 54 74
326 710 213 63 64 69
327 711 213 40 45 54
321 706 219 70 70 73
323 704 217 113 99 87
322 706 217 77 77 82
323 707 217 108 102 99
320 704 221 78 80 88
320 707 220 37 38 46
321 709 219 53 58 63
323 709 216 159 143 130
322 709 219 81 81 83
322 711 218 145 135 131
320 708 221 81 78 77
320 709 222 166 153 145
321 711 221 103 97 95
324 709 216 150 132 116
325 714 215 154 138 126
327 713 212 59 66 72
327 714 213 119 117 120
326 715 214 152 141 136
325 719 215 159 137 117
326 716 214 158 147 142
327 718 212 174 149 125
326 719 214 176 148 119
322 713 219 109 95 86
322 714 219 120 105 94
320 713 221 158 143 134
320 712 222 138 124 117
321 715 220 145 128 115
320 715 223 129 106 81
323 717 217 162 144 131
323 718 217 148 127 109
323 718 218 148 126 107
321 717 220 182 151 120
320 718 221 162 135 109
321 719 221 173 142 107
324 712 216 158 140 126
324 714 217 147 126 105
324 717 216 135 118 105
324 719 217 141 117 96
328 705 210 117 108 105
329 707 209 110 102 107
329 706 210 136 123 115
330 705 209 113 89 76
329 708 209 117 121 132
328 709 211 58 68 81
328 710 211 69 68 69
330 708 208 125 122 127
330 710 208 123 120 121
331 711 208 156 147 143
329 713 210 163 151 145
330 712 209 151 139 132
330 715 209 129 112 98
328 713 212 85 86 89
329 716 210 151 136 125
328 719 211 177 157 139
331 716 208 164 151 143
330 719 209 128 110 92
328 716 212 132 121 112
331 726 207 186 154 122
333 721 206 174 144 112
333 723 206 176 146 114
334 722 205 143 120 97
333 725 205 139 119 100
333 726 205 126 109 95
333 726 206 155 128 103
335 725 204 120 109 101
335 726 204 153 139 131
331 731 207 124 122 127
331 734 207 102 112 128
332 728 206 170 151 137
333 729 206 80 65 56
332 731 206 49 57 74
334 728 205 101 76 59
334 730 204 169 140 111
335 731 204 176 155 137
333 732 205 166 153 146
332 733 207 88 99 118
332 734 206 145 138 137
334 732 204 180 162 149
335 733 204 185 171 164
323 725 215 172 135 92
325 720 214 176 142 103
324 723 215 142 118 95
326 720 213 173 139 101
327 721 213 186 151 113
327 722 212 180 140 88
327 727 211 117 111 108
325 724 215 171 147 125
324 726 215 194 164 136
326 724 212 176 140 97
327 725 212 159 135 113
321 720 219 192 159 124
323 721 217 128 105 81
323 720 218 154 132 108
323 723 216 126 98 69
320 720 221 174 141 102
320 720 222 150 124 96
320 723 221 168 143 121
321 724 219 195 168 143
320 726 218 191 173 160
321 727 218 172 159 151
323 724 217 120 91 68
322 726 217 99 73 63
320 725 220 198 173 153
321 731 215 143 138 137
323 729 215 197 180 169
323 731 214 197 179 167
320 735 215 106 89 91
323 732 213 188 171 160
323 732 214 175 159 148
322 734 214 129 81 81
327 729 210 104 115 128
327 730 211 112 123 139
325 728 213 192 173 160
324 730 213 198 180 168
326 728 212 144 140 142
326 732 211 131 130 133
326 734 211 145 140 139
324 732 213 169 157 151
324 734 212 124 110 102
320 729 217 125 119 121
320 728 218 172 160 155
321 730 216 125 120 124
320 732 216 117 116 120
320 734 216 153 138 126
329 721 210 136 116 99
329 723 210 112 96 82
330 720 210 142 123 107
329 724 209 125 107 90
329 725 210 143 116 99
328 727 210 139 114 90
330 724 209 136 115 94
330 726 208 164 142 123
331 727 208 180 157 137
329 728 210 179 151 122
330 728 208 183 163 147
330 731 208 175 163 157
329 733 208 178 164 154
328 735 209 139 87 74
328 734 210 162 144 127
338 704 199 136 122 117
338 706 199 119 102 95
341 704 197 108 103 107
341 706 197 117 101 86
341 706 198 121 107 96
343 704 196 102 96 96
343 706 197 121 95 77
341 709 198 121 105 91
341 710 199 93 87 91
343 708 197 113 78 63
343 711 197 119 107 99
337 704 200 136 110 96
336 706 201 107 81 65
337 707 201 107 87 81
337 708 200 110 98 93
337 710 201 96 93 94
337 710 202 107 104 105
338 710 200 104 106 112
339 711 200 98 97 109
341 712 199 128 126 136
341 714 199 42 25 34
342 712 198 115 107 114
342 715 198 132 123 120
341 718 198 160 150 145
343 717 197 159 144 135
342 718 198 177 163 155
336 712 203 65 66 71
337 714 201 159 144 133
338 712 201 116 106 106
338 715 201 170 157 149
336 716 203 203 191 184
336 719 203 135 118 104
338 716 201 173 159 150
339 717 201 162 146 135
339 719 200 154 142 135
340 715 200 76 66 59
344 704 195 104 99 104
345 707 195 106 84 75
347 704 194 111 111 118
347 706 194 114 95 82
344 706 196 120 95 97
345 708 195 111 87 81
346 709 195 130 107 92
347 710 194 123 112 104
344 709 197 107 79 56
344 711 196 123 106 96
348 705 193 105 104 114
348 705 194 105 96 102
349 707 192 126 114 109
350 705 192 97 99 105
349 708 192 110 98 88
348 709 194 135 116 101
349 711 192 132 111 93
350 709 192 122 99 79
345 712 195 112 107 110
346 713 195 101 107 117
347 714 194 112 112 125
344 713 197 118 113 114
345 714 196 121 114 116
345 719 195 154 139 130
347 717 195 42 32 35
347 719 194 26 25 32
344 717 197 153 136 124
344 719 196 166 148 134
348 713 193 85 86 94
348 712 194 104 99 97
349 714 193 98 104 115
350 713 192 115 104 99
351 714 192 109 105 105
348 716 194 48 48 56
348 719 194 64 63 68
351 716 192 118 117 121
351 719 192 161 148 141
340 723 199 159 137 115
343 721 197 134 113 106
343 722 197 138 116 111
343 723 198 139 114 104
341 725 198 151 134 122
341 726 199 138 118 100
342 724 198 134 111 95
342 727 198 125 103 80
337 721 202 127 112 100
337 722 203 125 107 90
339 720 201 149 135 125
339 722 200 163 142 124
337 724 202 156 135 118
336 727 202 149 124 99
338 725 201 169 137 102
339 726 200 174 140 97
340 723 200 172 145 120
340 728 199 121 89 61
341 729 199 127 99 73
341 731 198 151 131 116
342 729 198 141 118 93
343 731 198 177 145 110
341 733 199 170 148 128
341 735 198 180 164 154
342 733 198 178 157 140
342 734 198 183 164 152
336 728 203 144 124 105
337 730 201 170 146 124
337 731 202 179 162 150
338 730 201 150 127 105
337 733 201 138 136 139
337 734 201 81 84 91
336 735 203 152 143 141
339 732 200 129 107 88
339 735 200 122 121 130
340 733 200 170 140 109
347 720 194 33 33 40
346 723 195 92 79 64
344 720 197 136 119 106
344 723 197 135 116 101
345 727 195 174 148 123
347 725 194 156 146 145
347 726 195 164 150 141
