ply
format ascii 1.0
comment Version 2, Copyright 2017, 8i Labs, Inc.
comment frame_to_world_scale 0.179523
comment frame_to_world_translation -45.2095 7.18301 -54.3561
comment width 1023
element vertex 2170
property float x
property float y
property float z
property uchar red
property uchar green
property uchar blue
end_header
205 469 268 101 107 162
205 471 268 82 105 167
206 470 268 112 127 174
200 479 263 74 96 161
201 472 267 116 129 164
200 474 266 164 174 193
202 473 267 194 198 209
202 475 266 104 126 171
200 477 265 88 110 173
201 478 264 134 146 183
203 476 265 169 179 197
202 479 264 112 122 172
204 473 266 141 157 187
204 475 266 113 135 175
206 473 267 103 123 177
207 475 266 97 120 157
205 477 265 186 191 205
205 478 265 113 127 167
206 477 266 92 102 162
207 478 265 70 86 155
209 463 271 126 131 174
212 462 271 136 131 176
214 463 271 127 125 171
216 463 271 124 132 170
219 460 271 113 132 171
219 462 270 81 94 158
221 459 271 103 125 174
223 458 271 112 130 171
221 460 270 75 101 165
221 462 269 164 173 191
222 461 269 191 193 201
223 461 270 176 182 196
223 463 268 203 196 196
210 451 275 204 195 195
209 448 277 97 118 165
210 448 277 92 115 164
210 451 276 203 197 198
208 453 275 199 196 201
209 454 274 202 195 196
211 452 275 203 192 191
211 454 274 204 195 193
212 449 277 72 103 152
212 451 276 202 194 196
215 448 277 144 150 179
215 451 276 170 171 184
212 454 274 204 194 193
214 452 275 171 171 182
214 454 275 196 192 196
213 452 276 189 186 192
209 457 273 102 116 169
208 459 272 124 129 172
210 457 273 57 77 155
211 457 274 87 107 164
208 460 272 136 135 174
209 462 272 139 138 177
210 462 272 142 138 177
213 457 274 74 103 160
215 457 273 84 109 152
214 458 273 160 171 189
212 460 273 193 196 206
212 462 272 139 135 172
215 460 272 205 195 193
218 451 275 202 193 193
216 449 277 136 148 173
217 450 276 185 185 193
219 448 276 123 125 168
219 450 276 158 158 177
216 454 274 105 123 163
217 455 274 92 107 164
219 453 274 197 190 191
219 454 274 161 164 182
220 451 275 190 184 186
223 449 275 131 128 166
223 450 275 134 136 165
221 449 276 134 135 175
220 452 274 199 190 189
221 453 274 181 177 185
220 455 274 144 149 174
222 453 274 166 166 181
223 454 273 174 176 187
217 457 273 78 93 151
216 459 272 207 200 202
218 457 273 141 151 179
218 458 273 152 161 182
216 460 272 208 198 197
218 460 272 158 168 190
220 457 273 205 197 198
220 459 272 131 146 181
222 457 272 199 192 192
208 465 271 149 151 173
208 467 270 184 187 200
210 465 271 139 140 178
211 466 270 133 136 175
209 469 269 151 166 190
209 470 269 185 195 211
211 469 269 116 135 165
211 470 269 136 149 182
213 465 270 127 130 176
213 466 270 135 139 181
215 464 271 129 127 175
214 467 270 133 138 177
212 469 269 115 132 170
212 471 268 132 143 181
214 469 269 115 126 174
214 471 268 144 156 186
208 474 267 119 140 174
211 473 267 196 196 204
211 475 266 146 154 180
211 472 268 158 168 191
208 478 265 82 96 154
209 478 266 93 108 157
210 478 265 158 169 194
211 478 266 175 183 199
212 475 266 136 145 176
214 473 267 109 122 164
214 474 266 80 95 159
212 472 268 165 174 194
212 476 266 138 148 175
212 479 265 162 170 192
214 477 265 185 187 197
214 478 265 195 194 201
216 464 270 127 127 174
216 466 269 121 127 174
218 465 269 122 124 172
219 465 270 117 121 170
219 467 269 116 122 171
218 470 267 168 179 199
216 468 269 127 133 178
217 469 268 131 141 180
218 468 269 125 134 176
221 467 267 113 118 172
223 467 266 109 115 166
221 465 268 115 122 168
220 467 268 115 121 171
222 465 268 142 148 179
221 468 267 113 121 170
221 470 266 110 123 172
222 469 267 112 122 169
223 470 265 120 127 174
220 468 268 115 122 173
218 479 263 145 160 188
223 475 263 133 145 177
220 478 263 136 152 186
221 479 262 115 132 166
223 476 263 137 149 182
222 478 262 72 85 138
216 473 267 151 161 189
217 474 265 163 172 194
219 473 265 135 147 183
218 474 265 147 159 187
218 474 266 129 140 177
217 477 264 163 173 200
218 476 264 135 149 186
218 478 264 138 155 188
221 473 265 103 121 168
220 474 265 144 159 185
221 475 264 134 153 186
223 472 265 152 164 187
220 476 264 138 152 191
192 480 261 105 127 168
192 482 260 74 85 144
194 480 261 81 101 165
195 481 262 125 140 179
195 483 260 165 173 191
193 485 259 155 159 176
193 486 259 183 183 194
194 487 258 183 187 202
194 484 260 186 186 196
196 481 261 152 163 192
197 481 262 156 168 188
197 482 262 131 148 174
199 481 263 122 137 172
199 482 262 171 180 199
198 487 259 100 119 181
197 484 261 138 150 182
198 484 261 156 169 197
198 486 260 110 129 182
192 489 257 154 160 183
192 490 256 102 118 170
193 491 257 121 132 181
195 489 258 80 91 154
194 490 258 101 114 161
193 493 256 138 146 178
195 492 257 204 201 207
196 489 258 106 113 170
196 491 257 194 193 202
198 488 259 91 112 180
198 490 258 150 165 198
196 492 257 211 205 207
196 494 256 208 201 203
198 493 256 202 199 207
198 494 256 210 203 208
200 481 262 165 175 196
200 482 262 187 192 205
202 480 263 102 111 172
202 483 262 117 133 168
200 485 261 103 114 168
200 486 261 89 98 167
202 485 261 39 67 146
203 485 262 45 73 156
203 487 261 172 180 202
205 482 263 202 201 207
207 483 263 178 185 203
205 485 262 103 120 183
205 486 262 115 132 186
207 485 262 130 144 190
207 487 262 149 158 191
204 480 264 188 191 207
206 480 264 211 206 209
206 482 264 214 207 208
200 490 258 125 141 185
202 489 259 186 193 211
203 491 259 190 196 215
203 488 260 178 180 197
201 492 257 196 201 216
200 494 257 143 152 176
202 493 257 153 169 200
203 493 258 147 158 194
203 495 256 116 136 193
205 491 259 155 161 186
204 488 261 215 211 214
204 490 260 170 169 191
207 489 260 193 197 209
204 492 258 173 182 209
204 494 257 105 126 182
205 495 257 100 124 183
207 492 258 105 115 166
206 495 257 75 99 163
200 496 256 130 142 177
205 496 256 111 134 192
208 483 263 158 170 195
208 485 262 148 162 194
209 487 261 193 193 205
210 484 263 132 148 187
210 487 261 211 208 213
211 487 262 206 204 211
215 481 263 120 140 182
212 484 263 119 134 177
213 485 263 153 167 194
213 486 262 133 148 176
215 484 263 181 187 200
215 486 262 162 169 189
208 482 264 196 198 209
211 481 264 118 132 184
212 480 264 124 136 183
212 482 264 121 139 186
215 480 264 136 150 183
208 488 261 150 158 188
209 489 261 146 155 186
210 488 261 196 197 207
210 490 260 129 143 183
208 492 259 122 137 178
208 494 257 141 153 194
209 495 258 134 151 192
211 493 259 122 144 194
211 494 258 123 140 194
213 488 261 98 107 153
213 490 261 83 113 159
215 488 261 129 138 179
215 490 260 143 154 192
213 492 259 151 166 198
213 494 258 131 147 191
215 493 259 190 193 204
215 495 258 181 187 206
216 481 263 87 111 164
217 482 262 87 105 150
218 481 262 96 110 157
219 483 261 99 108 145
217 485 261 202 197 202
216 486 261 178 182 195
217 486 262 200 198 204
218 485 262 180 181 191
219 487 260 143 152 178
221 480 261 130 144 175
220 482 261 180 185 200
221 483 261 189 192 204
223 480 261 154 162 188
223 483 260 151 163 188
222 485 259 149 160 186
223 486 258 118 132 177
220 484 261 146 154 174
220 486 260 93 110 146
216 480 264 135 149 181
218 491 259 118 131 179
217 488 260 146 158 186
217 490 260 120 134 184
219 489 260 126 139 175
217 493 259 202 201 208
217 495 258 199 199 207
219 492 259 131 142 174
218 495 258 184 188 199
220 489 259 150 159 180
220 491 258 186 187 196
223 489 257 186 190 201
223 489 258 174 180 193
223 490 258 152 160 177
220 493 258 165 171 187
221 495 257 122 133 172
222 492 258 168 175 193
223 495 257 174 181 197
209 497 256 158 166 194
211 496 257 193 200 217
212 497 256 204 207 219
214 496 257 131 148 189
215 497 257 98 122 171
215 499 256 125 147 190
216 496 258 178 185 202
217 499 256 97 122 172
218 498 256 79 96 150
216 500 256 125 146 189
220 497 257 154 168 192
220 498 257 180 188 203
222 496 257 142 153 178
222 499 256 128 144 183
221 500 256 161 172 196
226 453 271 178 178 184
226 455 271 182 179 187
229 450 271 137 133 172
231 449 271 138 137 168
231 450 270 134 131 167
228 453 270 159 159 181
228 455 269 160 160 176
228 455 270 168 166 181
231 453 268 142 140 171
230 454 269 145 151 172
231 462 263 176 178 189
224 457 271 166 168 182
224 459 269 170 177 193
224 459 270 130 145 176
226 456 270 164 165 182
226 459 268 165 168 181
225 462 267 201 193 193
227 461 266 155 162 182
226 463 266 194 192 199
224 461 268 204 195 195
224 462 268 203 194 194
226 461 268 190 186 192
229 459 266 198 190 191
231 457 266 192 184 186
230 459 266 197 188 187
228 457 269 194 190 196
230 456 268 197 189 189
228 461 266 162 169 187
228 463 265 94 109 161
228 462 266 133 147 174
231 461 264 160 165 183
230 463 264 117 133 168
235 451 267 118 119 166
233 448 270 145 145 172
233 451 268 123 122 164
234 449 269 143 146 174
234 450 269 138 139 172
232 455 267 149 152 168
234 453 266 120 119 168
234 455 265 140 146 171
235 454 266 120 123 172
233 453 268 126 122 163
237 449 267 159 162 176
237 450 267 143 146 173
238 449 266 163 165 177
239 450 265 167 169 180
236 448 268 177 178 187
236 452 266 119 124 169
236 455 265 131 136 173
238 453 264 118 126 169
238 454 264 117 122 170
235 459 263 162 164 179
232 463 262 192 184 186
234 460 263 150 153 175
235 463 261 169 168 178
235 463 262 172 171 181
237 458 263 177 178 187
239 457 263 142 152 173
239 458 263 172 176 187
237 460 262 189 184 188
237 463 261 180 179 188
238 460 262 190 183 186
238 463 261 189 185 191
233 457 265 168 166 176
233 457 266 168 165 174
233 459 264 152 154 173
235 456 264 162 168 182
234 459 264 151 154 176
232 461 264 146 152 172
236 457 264 158 164 179
224 448 275 134 131 167
225 451 273 139 139 176
225 451 274 136 136 171
227 448 274 128 127 167
227 451 272 127 125 168
224 453 273 141 146 171
224 454 272 163 166 177
226 452 272 153 155 178
226 454 272 181 181 189
229 449 272 134 134 170
229 450 272 137 134 172
227 468 263 119 126 166
227 470 263 109 115 168
229 466 263 160 170 188
231 464 263 191 189 195
230 466 262 150 159 178
228 468 262 116 122 169
229 469 262 112 117 169
228 471 262 109 118 172
231 469 260 114 125 170
230 471 260 101 111 167
225 464 266 192 191 198
224 466 266 124 134 174
226 464 265 115 126 163
226 464 266 172 175 189
227 466 264 149 161 187
225 468 265 119 125 170
224 470 265 119 127 172
225 471 264 120 132 170
228 464 264 75 89 154
228 466 264 153 164 186
225 473 262 125 138 175
224 475 262 149 160 181
227 473 261 122 133 174
227 473 262 122 132 172
227 475 260 152 161 181
226 479 259 185 189 201
225 477 260 120 131 156
224 478 261 115 127 164
225 479 260 164 172 190
227 477 260 156 164 179
230 473 259 114 124 173
230 475 259 159 171 192
228 473 260 116 125 171
228 474 260 125 136 174
230 473 260 115 122 172
229 476 258 140 152 176
228 478 258 159 168 188
229 478 259 165 174 191
231 476 258 158 168 193
231 479 256 118 135 173
224 473 264 173 181 196
233 465 262 191 184 187
233 467 261 195 191 193
235 465 261 186 184 192
235 466 260 189 189 198
233 471 259 108 117 172
234 471 258 102 112 169
232 468 260 174 181 195
232 470 260 112 120 170
235 468 260 138 149 180
236 464 261 163 163 174
236 466 260 169 173 188
238 464 261 186 185 194
238 466 260 135 146 174
237 469 259 133 148 176
237 470 259 180 190 206
239 468 259 160 169 184
239 470 258 146 157 174
232 473 259 110 121 173
233 474 257 115 127 175
233 475 258 112 126 171
235 473 258 95 108 171
235 475 257 109 123 174
233 477 256 94 116 167
233 478 256 93 115 158
235 476 256 91 112 166
237 473 257 112 119 176
236 475 256 110 122 178
238 473 257 114 121 173
238 474 257 101 112 171
236 477 256 136 152 184
239 476 256 105 121 174
240 455 263 117 123 170
243 452 263 159 164 184
243 454 262 103 115 168
245 451 263 181 183 193
247 450 263 172 172 181
245 453 262 145 156 182
245 455 262 96 112 169
247 453 262 169 175 189
240 448 265 188 182 184
240 450 265 177 176 183
241 451 264 145 153 173
243 449 264 172 173 184
243 451 264 159 163 178
240 454 264 120 127 171
245 448 264 159 162 175
246 449 264 160 165 177
240 457 263 132 143 171
240 458 262 154 161 177
242 457 262 112 121 172
243 458 261 117 129 172
241 460 261 166 168 178
240 463 261 187 183 187
242 460 261 165 168 179
242 462 260 167 167 177
245 457 261 98 112 172
244 459 261 133 145 174
247 456 261 92 111 170
246 459 261 109 124 171
246 463 259 172 175 187
245 460 260 149 159 179
245 462 260 172 175 187
247 461 260 132 147 176
248 450 263 181 180 188
251 449 263 186 186 194
248 452 263 176 176 185
248 455 262 128 144 178
250 453 263 186 186 196
250 455 262 163 174 193
252 451 263 190 188 196
252 452 263 191 189 196
252 455 262 174 180 193
254 453 263 171 176 189
254 455 263 159 166 184
249 448 264 168 172 184
251 449 264 181 182 192
254 448 264 160 168 187
254 451 264 159 165 182
248 457 261 88 109 170
249 458 261 82 105 172
250 456 262 134 153 181
251 458 261 100 120 178
248 460 261 94 115 171
248 462 260 164 174 191
250 461 260 108 129 176
250 462 261 107 128 178
252 457 262 125 144 180
252 458 262 112 131 180
254 457 262 178 183 196
254 459 262 123 145 179
252 461 261 73 99 172
252 462 261 99 121 177
254 461 262 74 99 171
254 462 262 71 97 171
240 466 259 149 156 178
242 465 259 135 143 160
243 466 259 171 173 184
241 464 260 162 162 175
240 469 258 177 179 190
240 470 258 161 169 182
242 468 259 186 182 186
243 471 257 187 183 186
244 464 259 154 158 172
244 467 258 166 166 175
246 464 259 180 180 190
246 466 259 171 173 183
244 469 258 180 177 183
245 471 257 176 175 184
247 468 258 177 179 191
247 471 257 134 143 172
241 472 257 158 166 183
241 474 256 114 121 173
243 472 257 185 183 190
243 474 256 96 111 164
241 476 256 93 111 169
243 477 256 88 110 168
245 473 257 140 153 176
246 472 257 151 158 181
246 474 257 118 137 168
244 476 256 90 106 169
245 478 256 84 104 169
247 477 256 83 108 167
248 464 259 192 190 196
248 466 259 190 188 196
250 464 259 185 187 198
251 467 259 179 183 196
251 466 260 170 176 191
248 471 257 124 137 171
250 468 258 190 189 198
251 469 259 173 180 196
251 471 258 156 171 195
253 464 261 135 156 187
253 466 260 177 184 199
255 465 261 136 157 185
254 467 261 185 189 202
252 470 259 137 154 181
253 468 260 154 164 185
254 468 261 179 185 200
254 471 260 147 160 187
248 473 257 122 140 176
248 475 257 133 153 181
251 472 258 161 173 193
250 475 258 184 189 201
248 477 257 96 118 170
248 479 256 80 104 170
250 477 257 155 168 190
250 479 257 91 109 169
252 472 259 166 177 195
252 475 258 187 189 200
254 472 260 147 162 186
254 475 260 164 174 194
252 477 258 187 190 201
252 479 258 142 156 185
254 477 259 186 191 204
255 476 260 145 162 190
225 480 259 188 190 200
225 482 259 110 125 153
227 480 258 164 171 190
226 483 258 79 94 139
225 480 260 175 181 194
224 485 258 112 130 178
225 487 257 115 132 176
226 485 257 125 143 177
226 486 257 110 129 174
228 481 257 97 106 156
228 482 257 112 126 163
229 483 257 163 172 190
231 480 256 134 149 178
228 484 256 170 179 195
228 486 256 115 133 170
224 489 257 162 174 193
224 488 258 156 168 188
225 490 257 112 137 174
227 488 256 124 139 179
224 492 257 83 102 152
224 494 256 120 139 176
226 494 256 54 88 150
224 496 256 155 170 191
247 480 256 88 111 172
249 480 256 82 105 170
249 483 256 110 129 174
251 481 257 108 126 178
251 483 257 91 113 173
251 484 257 98 120 173
251 486 256 121 142 182
252 481 258 117 134 180
252 482 258 112 130 179
254 481 259 125 144 184
254 483 258 105 125 182
252 485 257 95 120 175
252 486 257 99 123 176
253 486 258 89 117 177
255 485 258 94 121 182
255 487 258 96 124 181
251 490 256 159 172 192
251 495 256 168 174 189
253 489 256 114 134 175
253 491 256 165 176 195
254 489 258 147 164 192
255 491 257 163 177 200
253 492 256 184 187 198
252 495 256 177 180 192
254 493 257 163 175 194
254 495 256 183 189 201
252 497 256 155 167 188
254 497 256 151 164 190
254 498 256 114 134 175
255 501 256 144 162 192
257 11 91 48 47 47
256 11 93 49 48 48
256 10 95 50 49 48
259 10 93 52 50 50
259 10 95 54 52 51
257 13 90 46 45 45
256 15 90 69 60 51
259 12 91 50 48 46
258 14 90 56 48 40
261 11 92 57 53 51
261 11 95 59 56 55
262 11 94 61 58 55
260 12 91 52 49 47
260 15 89 76 64 52
262 12 91 60 55 51
263 13 91 66 59 53
263 14 90 69 60 52
265 11 94 72 66 62
265 13 91 74 66 59
265 14 91 77 68 60
266 15 90 88 75 63
264 12 93 69 63 59
266 12 92 75 68 62
267 13 93 80 73 67
267 13 94 80 74 68
268 13 94 84 77 71
268 14 93 90 81 75
269 15 93 104 95 88
270 14 95 95 88 83
271 15 95 103 96 91
259 19 87 99 86 74
257 21 86 96 86 77
258 20 87 97 85 74
258 22 86 90 80 70
260 19 87 98 85 71
263 19 87 111 94 77
261 21 86 105 92 80
261 23 86 112 101 92
263 21 86 105 98 93
263 23 86 117 107 97
257 17 89 91 80 70
257 18 88 96 85 74
259 17 88 96 84 72
260 16 89 88 76 65
260 18 88 98 86 74
263 16 89 93 82 71
256 25 85 93 80 68
257 26 85 79 67 57
259 25 85 107 96 87
259 27 85 96 88 82
257 29 84 117 113 110
257 30 85 113 109 108
259 29 85 98 94 91
260 24 85 115 105 97
260 26 85 104 96 90
263 25 85 109 100 95
262 26 85 100 92 87
260 29 85 64 59 56
261 30 85 49 39 34
263 29 85 55 46 40
264 19 87 122 105 89
264 22 86 109 100 92
265 23 87 116 107 99
267 22 87 112 103 96
264 17 88 97 80 64
264 19 88 118 100 84
266 17 89 110 93 77
266 18 89 130 115 101
265 20 88 126 116 109
267 21 88 102 96 90
268 17 91 122 108 98
268 18 90 130 120 114
270 18 91 117 111 107
270 17 92 118 110 104
271 17 94 109 103 100
271 19 93 98 94 92
268 21 89 112 101 90
268 23 88 113 107 104
270 20 91 100 94 90
270 22 89 114 108 104
271 22 90 115 110 108
264 25 86 110 104 100
264 26 86 90 87 86
266 24 87 118 111 107
266 26 86 82 78 74
264 29 85 74 64 55
265 28 86 69 58 48
265 31 85 89 78 68
266 28 86 80 68 57
267 30 85 91 79 68
269 24 87 94 90 88
269 26 87 90 80 71
270 26 87 95 83 72
268 28 85 91 79 67
269 28 86 95 81 67
269 31 85 98 83 67
271 29 86 101 85 67
271 30 86 104 87 68
271 24 89 99 94 91
272 17 94 108 102 99
272 18 95 107 101 98
272 21 91 117 111 109
272 23 91 108 106 106
272 20 92 117 107 99
273 21 93 115 111 110
273 22 93 111 108 108
275 21 95 112 107 104
274 22 94 107 102 99
276 23 95 106 96 88
272 29 86 105 87 67
272 31 86 118 97 74
272 25 88 98 84 69
273 24 91 92 81 70
273 26 89 110 94 77
275 25 91 111 94 75
274 27 90 113 94 72
275 24 92 100 84 67
275 26 92 115 95 75
274 28 88 111 91 67
275 28 91 123 100 75
274 31 88 128 104 76
275 30 91 127 99 78
276 24 95 103 91 79
276 26 93 116 97 75
277 26 94 115 96 76
276 29 91 125 96 75
276 29 93 124 95 74
277 29 95 131 97 75
277 30 93 128 94 76
277 31 95 136 96 85
257 10 97 53 51 50
258 10 96 53 51 50
258 10 99 55 53 52
257 9 101 58 54 52
257 10 102 60 55 53
258 9 102 60 56 54
258 10 103 63 59 56
261 10 96 59 56 55
261 10 98 60 57 56
263 11 97 68 64 61
263 11 99 70 66 64
260 10 102 66 62 60
262 10 101 71 67 65
262 10 103 74 69 67
256 10 105 66 60 56
257 10 106 69 63 59
259 10 105 69 64 61
256 10 108 73 66 61
256 10 111 82 73 67
259 10 108 76 69 65
259 10 111 85 77 71
260 10 106 72 67 64
262 10 105 76 71 68
263 10 106 81 76 73
261 10 109 84 77 72
262 10 108 83 77 73
262 10 111 91 83 78
264 11 96 72 67 63
264 11 99 76 71 68
267 11 97 84 78 73
264 11 100 76 72 69
264 11 103 80 75 72
267 11 100 89 83 79
267 11 103 91 85 81
267 12 103 94 88 84
269 13 96 88 82 77
270 13 96 90 84 79
270 12 99 94 87 83
271 14 96 97 90 86
269 12 101 95 89 85
270 12 100 95 88 84
271 13 101 100 93 89
271 13 102 103 96 91
265 11 104 85 80 77
265 11 107 90 84 80
266 11 106 92 86 82
264 11 108 90 83 79
264 11 111 96 89 84
267 11 108 99 92 88
267 11 111 104 96 91
267 12 108 99 92 88
268 12 105 98 92 88
269 12 106 102 95 91
270 13 105 105 98 94
270 13 106 105 98 94
268 12 109 104 96 92
269 12 110 107 99 94
271 13 108 108 101 97
271 13 111 111 103 98
256 10 114 92 82 75
258 10 113 90 80 73
259 10 114 94 83 76
257 10 117 100 88 79
258 10 116 98 86 78
258 10 119 106 92 83
261 10 112 91 82 76
260 10 115 98 86 78
262 11 112 94 86 80
262 11 115 100 89 81
261 10 116 102 89 80
261 10 118 104 91 81
263 11 117 104 92 83
263 10 119 105 92 82
257 10 120 107 94 84
257 10 123 112 99 89
258 10 122 111 98 88
256 10 125 115 102 92
257 10 126 118 104 94
259 10 125 118 104 93
260 10 120 109 95 84
260 10 123 114 100 89
263 10 120 108 94 83
263 10 122 112 97 85
261 10 125 118 103 92
262 10 124 116 101 89
262 10 127 121 106 95
265 11 112 102 93 87
265 11 115 106 95 88
266 11 114 107 97 91
264 11 117 106 94 85
265 11 118 108 95 85
267 11 117 110 98 89
268 11 112 108 99 93
268 11 117 111 99 91
269 11 118 112 100 90
268 12 113 110 100 94
269 12 114 111 101 95
271 12 113 113 103 98
271 12 114 113 103 97
270 12 117 113 101 93
271 12 118 114 102 93
265 11 120 110 95 84
265 10 123 114 98 85
267 11 121 112 97 85
267 11 123 114 98 85
264 10 126 119 103 90
266 10 125 117 101 87
267 10 126 117 101 87
269 11 121 113 98 86
270 11 120 113 99 88
270 11 123 114 98 85
268 11 124 115 98 85
269 11 126 118 101 87
271 11 125 116 99 85
271 12 120 114 100 90
262 31 127 173 147 143
265 31 126 146 121 122
267 31 126 128 108 121
269 31 125 119 99 109
270 31 124 159 130 137
270 30 127 118 114 110
271 31 126 111 106 103
273 15 97 105 98 93
273 15 98 105 98 94
272 13 101 102 95 91
273 14 100 103 96 92
273 14 103 107 100 95
274 14 103 108 101 97
272 13 104 106 99 95
273 14 104 108 101 96
274 14 105 110 102 98
274 14 106 110 102 98
275 15 107 112 104 100
273 13 110 112 104 100
273 14 111 113 105 100
274 14 110 113 105 101
275 15 111 115 107 102
273 13 112 114 105 100
273 13 115 115 105 98
274 14 112 114 106 101
274 14 114 116 106 100
272 12 117 115 103 96
272 12 118 115 103 94
274 13 116 116 105 98
274 13 119 116 104 94
275 14 117 117 106 98
277 15 113 118 109 104
277 15 114 118 109 104
276 14 117 118 106 98
276 14 119 118 105 95
279 15 116 120 110 104
278 15 119 120 107 98
272 11 125 115 99 85
273 11 126 116 99 85
273 12 121 115 101 90
274 12 120 116 102 93
275 13 121 116 102 92
275 13 122 117 102 90
273 12 126 116 99 85
275 12 125 116 99 86
275 12 127 116 99 85
276 13 123 117 101 89
277 14 121 118 103 92
279 15 120 121 107 98
279 14 123 119 104 92
277 13 124 117 101 88
277 13 126 116 99 85
278 13 127 116 99 84
279 14 125 117 101 87
280 15 121 122 109 100
281 15 123 123 109 99
281 15 125 122 107 96
281 15 127 119 104 92
273 17 97 110 103 99
274 16 98 109 102 97
275 17 98 111 104 100
274 19 97 113 106 103
275 19 98 113 106 102
275 16 102 111 103 99
275 20 97 114 108 105
276 18 99 112 105 101
276 16 103 111 103 99
276 19 100 113 105 101
277 18 102 113 105 101
276 21 97 117 109 105
277 21 99 115 106 101
277 23 97 118 107 100
278 22 99 118 108 101
277 21 100 115 106 101
278 20 102 115 107 102
278 22 100 117 107 100
279 23 101 119 109 102
275 16 105 112 104 100
276 16 105 112 104 100
276 16 106 113 105 100
277 18 104 114 106 102
278 18 105 116 107 103
278 18 107 116 108 104
276 16 109 115 107 103
276 16 110 116 107 103
278 17 109 116 108 104
279 17 111 118 109 105
279 18 110 118 109 105
279 21 104 119 110 105
277 25 96 104 91 79
278 25 97 109 95 83
279 24 99 128 117 111
278 27 97 120 101 81
279 27 98 118 100 82
279 25 101 132 119 111
279 26 102 153 137 126
277 30 97 141 110 93
277 30 99 142 115 96
278 29 96 136 107 83
278 29 99 139 118 99
277 30 101 138 110 93
277 30 102 136 108 93
279 28 101 145 130 120
278 30 101 132 113 95
275 31 106 141 111 99
275 30 108 157 136 130
274 31 111 153 130 125
279 27 104 154 139 130
277 29 106 163 148 140
276 31 105 139 110 96
276 31 106 145 123 111
279 28 104 157 141 132
279 28 107 158 144 137
276 30 108 157 138 132
276 30 111 146 124 127
279 28 108 153 139 132
279 28 110 133 118 115
280 23 102 119 110 104
280 18 110 118 110 106
280 21 104 120 111 106
280 21 107 122 113 107
280 23 104 122 112 107
281 22 107 125 114 108
280 20 109 121 112 107
281 20 110 121 112 108
282 21 109 122 113 108
282 23 108 124 113 107
282 23 111 124 115 111
280 25 103 127 115 105
281 24 104 126 114 108
281 24 107 128 117 111
280 27 104 151 136 127
280 27 106 152 137 127
281 25 108 138 126 118
281 27 109 136 124 117
282 24 108 128 117 110
282 24 111 122 114 109
282 26 109 134 122 115
280 28 110 124 109 105
278 16 112 118 109 105
279 17 113 119 110 105
279 17 114 120 111 106
279 16 118 122 111 104
273 31 114 168 146 143
275 30 113 154 130 136
275 30 114 168 152 153
274 31 116 179 154 150
274 31 119 168 143 139
277 30 112 144 116 115
277 30 115 164 148 151
278 29 114 179 151 167
278 30 115 161 132 155
276 31 117 154 133 143
276 31 118 135 115 122
279 28 117 158 146 138
279 28 118 146 133 130
278 30 117 129 116 124
273 31 121 126 102 97
273 31 123 118 106 97
275 30 121 114 95 90
274 31 122 104 91 80
272 29 127 185 164 163
272 31 124 139 126 119
274 29 124 182 164 158
274 28 126 183 157 156
274 30 124 175 161 156
279 26 121 170 159 154
278 27 123 169 153 148
276 27 125 175 155 153
276 27 126 175 153 151
279 25 124 168 150 143
279 24 127 166 151 142
278 26 126 175 157 154
276 28 123 176 162 156
277 29 122 164 149 142
278 28 121 160 143 142
280 17 114 120 111 106
281 18 113 117 109 105
281 18 114 119 110 106
280 16 116 122 112 107
281 17 117 125 116 111
281 18 116 124 115 111
282 18 117 127 118 114
282 19 118 129 120 116
282 20 113 114 105 100
282 21 114 109 100 95
283 23 112 126 118 115
283 23 114 120 113 110
282 21 116 119 112 109
282 21 119 135 126 120
283 23 116 93 87 84
284 23 113 126 118 116
281 16 122 125 113 105
282 17 122 128 117 111
282 19 121 130 121 118
283 18 122 130 121 116
282 16 124 126 114 106
283 17 125 128 116 110
283 18 124 131 120 115
283 18 126 130 119 112
281 23 121 147 134 128
282 21 120 138 128 123
283 20 122 135 125 121
282 23 120 142 127 125
282 23 123 150 138 133
281 22 127 152 139 132
283 20 124 142 131 126
282 21 126 147 135 129
282 22 124 151 139 132
283 24 112 121 113 110
283 24 115 106 100 97
282 27 112 141 127 119
282 27 114 163 148 140
281 25 118 143 139 137
280 26 119 135 118 119
281 27 118 135 108 109
283 24 116 95 87 84
282 26 116 138 123 114
280 28 113 148 123 121
280 29 114 142 106 120
280 28 117 158 143 137
280 25 121 155 144 152
280 24 123 159 144 135
280 26 120 162 149 145
280 25 124 164 147 138
257 43 79 97 87 77
257 45 79 98 86 76
257 47 78 100 86 72
258 46 79 104 90 76
260 46 79 110 95 79
257 35 83 50 40 31
256 33 84 89 84 81
257 35 84 49 39 30
259 33 84 58 46 37
256 37 82 61 45 30
256 39 81 86 71 55
258 37 82 90 77 64
259 37 83 86 74 61
258 38 82 89 76 63
261 35 82 93 80 68
263 34 83 93 81 68
261 32 84 74 63 55
262 32 84 83 73 63
263 33 84 91 80 69
261 36 82 95 81 68
261 39 81 101 85 68
263 37 82 100 85 68
263 38 82 105 88 69
256 42 80 97 86 74
258 41 80 100 87 75
258 43 80 100 88 76
260 40 80 101 86 70
260 42 80 106 90 73
262 41 80 110 92 72
262 42 81 114 96 77
260 44 80 109 93 76
260 47 80 110 94 78
262 45 80 115 99 84
263 45 82 111 94 78
263 46 82 110 94 78
264 35 83 97 82 65
266 34 83 100 83 63
264 32 85 87 78 69
266 33 84 94 80 65
265 36 82 106 87 66
265 39 82 120 100 79
267 37 83 120 99 78
267 38 83 123 103 84
268 32 84 98 83 67
268 34 84 110 89 64
270 33 84 116 94 67
270 34 85 124 98 72
271 34 86 129 102 76
268 36 84 125 101 78
268 39 84 117 99 82
269 39 86 106 88 70
271 37 85 127 105 85
270 38 86 109 91 71
271 39 87 112 91 68
265 40 82 120 101 81
265 42 83 114 96 81
266 41 83 113 96 79
267 40 84 113 95 79
267 42 85 110 92 74
264 45 83 113 95 78
264 46 83 114 96 77
265 46 84 116 98 79
266 45 85 117 98 78
266 46 84 116 97 78
267 46 86 120 100 81
268 40 85 107 90 74
269 41 86 113 95 78
268 43 87 121 99 80
270 40 87 114 95 75
268 45 86 121 101 82
269 43 88 125 99 80
271 41 88 124 100 79
270 42 89 128 102 84
270 43 90 129 104 87
271 41 92 131 104 87
270 43 93 126 102 84
270 43 94 123 100 80
271 43 95 120 97 75
269 45 89 124 100 84
268 47 89 122 95 80
268 47 91 120 92 77
270 44 89 126 101 82
269 45 92 126 101 86
268 47 93 118 91 77
268 47 94 117 92 75
269 47 95 115 92 68
270 44 94 121 98 78
256 49 77 100 86 72
256 50 76 101 87 72
258 48 78 105 90 75
259 49 79 112 95 80
259 50 79 110 93 76
257 52 76 108 91 73
256 55 76 114 94 72
258 53 77 110 91 70
258 54 77 111 91 69
259 54 79 116 94 72
260 50 79 111 93 76
260 55 79 117 95 74
257 57 77 119 98 77
256 59 78 118 99 81
258 56 79 117 96 75
258 58 79 115 94 74
256 61 79 115 97 81
256 63 79 112 93 74
260 49 80 112 95 80
262 48 81 114 96 79
263 49 83 117 100 83
263 50 83 118 100 82
261 53 80 120 99 79
261 54 81 122 102 83
262 52 82 118 99 80
263 53 83 119 99 80
262 55 83 122 102 83
262 54 84 122 102 83
263 55 85 121 101 83
259 57 80 116 95 73
259 59 81 118 96 75
258 60 80 115 94 73
259 60 82 120 94 74
258 63 82 126 103 80
260 56 80 117 95 73
261 56 82 121 99 79
260 58 82 120 96 77
261 59 83 120 94 76
261 59 84 120 94 75
262 56 85 121 100 81
262 57 87 123 101 81
262 58 85 120 98 76
260 60 83 122 95 78
260 61 84 125 100 83
261 60 86 123 101 80
260 62 85 123 101 81
260 63 87 118 99 79
263 56 88 120 99 79
263 57 90 118 99 80
262 59 89 120 99 79
263 59 90 118 98 80
261 60 89 120 100 81
261 63 88 116 97 79
262 60 89 119 99 80
263 60 91 112 94 78
263 60 92 110 93 76
263 61 94 107 90 73
263 62 93 108 91 74
263 63 95 111 93 74
264 48 84 119 101 84
265 49 85 120 100 81
264 51 85 120 100 80
265 51 86 118 97 76
266 49 87 120 98 78
264 53 85 120 99 79
265 52 87 118 97 76
265 51 89 119 97 78
267 49 89 123 98 80
266 51 88 119 98 78
266 51 91 121 100 81
266 51 92 119 99 80
267 51 93 115 95 76
264 53 88 117 96 77
265 53 89 118 98 81
264 54 88 117 96 78
264 54 91 118 98 80
265 55 91 117 98 79
265 54 93 114 95 76
265 55 95 108 89 69
266 52 94 111 91 70
266 54 94 110 90 71
268 49 91 123 97 82
268 48 94 114 89 72
264 56 91 116 97 79
264 57 92 114 96 78
265 56 95 108 90 70
264 59 92 114 96 80
264 59 95 109 90 71
272 32 86 122 99 74
273 33 87 129 104 78
273 35 87 132 107 86
273 33 88 130 104 80
274 33 88 132 103 81
275 32 91 132 97 83
274 35 89 138 105 91
275 34 91 137 100 88
275 34 93 135 97 88
275 35 94 136 101 92
273 37 88 124 97 77
272 38 89 122 96 75
272 39 91 128 99 83
274 36 89 136 102 90
273 37 92 130 96 83
273 38 93 129 97 84
273 38 95 127 96 81
274 37 92 133 98 86
274 37 95 129 98 85
276 32 94 134 94 84
276 34 94 134 97 88
272 41 90 130 102 87
272 41 93 129 102 86
263 42 111 119 91 66
262 47 111 118 93 65
271 39 99 125 93 76
271 38 100 122 87 72
270 39 102 120 94 72
267 39 107 119 91 66
265 39 110 122 92 70
266 36 111 126 90 70
267 37 110 126 93 70
267 38 109 122 93 71
270 35 105 127 94 75
271 34 106 130 97 79
269 35 108 126 94 73
269 34 111 131 96 76
271 33 111 129 93 80
271 34 109 130 95 78
268 37 107 124 93 73
268 39 105 119 95 69
268 38 106 123 96 73
270 36 104 127 95 76
271 37 104 125 94 73
268 37 108 125 93 71
267 46 103 114 91 65
271 41 97 126 102 79
271 41 99 127 98 79
270 42 98 126 101 78
269 40 103 118 93 68
269 43 101 121 93 71
269 43 102 119 92 69
271 40 100 125 93 76
270 41 102 121 94 71
269 45 96 116 93 67
269 45 99 125 99 76
269 47 96 117 93 66
269 46 99 124 99 76
268 45 101 118 92 69
268 44 102 117 91 67
268 46 100 122 97 74
268 46 103 114 90 65
267 41 107 116 89 65
266 43 107 114 89 65
265 41 109 120 92 68
265 41 110 120 92 69
264 42 110 120 92 68
266 40 108 119 90 67
266 43 108 115 90 65
267 44 104 116 93 70
266 44 107 111 87 62
266 47 105 111 87 61
266 46 107 111 89 64
265 44 109 118 94 70
264 46 109 114 91 64
264 46 110 114 90 63
269 40 105 117 92 66
268 42 105 118 93 70
259 38 119 115 87 62
263 37 115 123 91 73
262 39 114 120 92 68
261 37 117 117 89 66
260 39 116 118 87 67
261 39 117 118 87 66
262 37 116 119 88 67
262 36 118 117 85 66
262 38 116 119 90 65
258 35 122 121 86 67
257 33 125 126 112 102
257 33 127 162 148 144
257 34 125 114 94 79
258 32 126 167 150 147
259 33 126 163 148 143
256 36 123 124 91 72
256 39 121 117 89 68
258 36 121 118 89 69
259 37 121 116 88 67
259 38 120 114 87 61
260 34 123 110 76 60
262 33 123 139 124 117
263 34 120 112 68 61
263 34 122 109 87 77
261 33 124 156 139 134
262 32 125 174 155 153
262 32 126 177 153 150
261 36 120 115 83 63
257 42 119 118 92 68
258 40 118 117 89 66
259 41 118 118 91 67
259 43 117 119 91 67
259 47 115 121 93 69
257 45 118 118 91 67
257 46 118 119 91 68
259 44 116 119 92 66
258 46 116 121 93 67
259 47 116 121 93 67
260 43 115 117 90 65
262 40 113 120 91 69
262 40 114 120 91 69
262 43 113 117 91 65
260 41 116 118 89 67
261 44 113 116 90 64
261 44 114 116 90 64
260 46 114 118 91 66
262 44 112 119 94 68
263 45 112 120 95 68
256 40 121 118 89 69
256 43 120 117 90 67
267 34 113 127 92 72
267 34 114 126 91 71
264 35 117 121 91 69
265 34 118 124 85 70
267 33 118 115 88 72
267 34 116 122 85 67
264 37 113 122 90 68
264 36 114 122 85 71
265 36 115 122 90 74
266 36 112 124 88 68
264 36 117 120 91 70
269 33 114 126 85 74
269 34 112 132 95 77
270 33 113 128 88 79
270 32 115 146 118 114
268 33 116 119 81 70
268 33 118 141 119 111
269 33 119 165 146 143
270 32 118 169 149 147
265 33 120 122 108 97
265 33 123 173 156 154
264 34 122 113 97 84
266 32 123 175 150 151
267 33 122 175 154 152
265 32 125 162 129 136
267 32 124 153 120 128
269 32 120 175 153 153
269 32 122 174 145 146
271 32 121 172 137 139
268 32 124 150 120 130
263 49 109 114 90 65
263 49 110 112 87 61
262 50 111 115 92 66
263 54 107 118 93 66
261 55 110 117 91 65
263 53 108 116 90 62
262 53 111 117 92 65
263 55 108 116 91 63
263 63 96 114 94 74
263 63 99 113 91 72
263 62 100 116 92 72
263 62 102 115 89 65
259 61 111 117 90 64
263 57 107 117 93 66
263 58 107 117 93 67
260 57 111 117 91 63
261 59 109 115 90 62
261 59 110 115 90 62
263 56 108 117 91 64
261 63 107 117 94 70
262 60 107 114 90 64
262 62 104 119 94 71
263 62 105 120 96 72
262 63 107 117 94 70
260 60 110 116 90 62
260 63 109 115 90 65
260 62 110 117 92 67
262 61 108 112 88 61
267 51 96 112 90 66
267 51 99 118 97 74
267 48 102 116 93 69
267 50 100 117 95 75
266 51 102 116 92 69
265 55 96 112 92 72
266 53 96 111 90 68
266 53 98 119 98 77
266 54 97 115 95 74
266 55 99 119 97 75
266 52 101 113 90 66
266 52 103 117 93 67
266 55 100 118 96 72
268 48 96 116 92 67
268 48 99 124 101 77
264 49 107 118 94 67
265 50 105 118 94 68
265 50 107 119 94 66
266 49 105 116 92 67
266 50 105 118 94 69
264 49 109 116 92 67
265 52 104 118 93 67
264 52 107 120 95 69
264 54 105 117 93 68
265 55 105 117 94 69
266 52 104 118 94 68
265 56 97 117 97 77
265 57 98 118 97 75
264 59 97 115 93 70
265 58 98 117 95 72
265 57 101 119 96 72
265 57 103 116 93 67
265 58 101 118 96 72
265 58 102 118 96 71
264 61 97 115 94 72
264 62 96 114 94 74
264 60 101 116 93 69
264 56 104 117 94 69
265 57 104 116 93 68
264 59 104 115 91 64
258 51 115 119 94 68
257 48 117 120 91 67
257 48 118 119 91 67
257 51 117 120 93 67
258 49 116 121 93 68
258 53 115 116 93 67
259 54 113 115 91 65
259 54 115 114 91 65
257 52 117 120 93 67
256 54 117 115 90 62
257 55 117 116 90 62
258 55 116 115 91 63
261 49 112 116 91 64
260 51 113 116 92 66
262 48 112 117 92 65
260 53 112 117 92 66
260 54 113 116 92 66
257 57 115 116 92 64
259 56 112 115 89 63
258 56 115 115 91 63
258 59 113 115 90 64
258 58 114 116 91 64
256 57 117 116 91 63
257 58 116 117 91 65
257 61 114 119 93 67
257 62 114 119 93 68
259 61 112 116 90 64
258 63 113 115 90 65
260 58 112 117 90 64
274 35 97 129 93 81
274 34 99 126 93 80
273 35 100 126 91 82
273 34 103 130 93 79
275 33 100 130 94 82
275 32 103 138 101 86
274 35 100 126 92 81
273 37 97 129 95 80
272 39 96 126 98 78
272 38 98 127 95 78
274 36 96 130 96 82
274 36 99 128 93 83
273 36 101 123 87 78
272 38 100 121 87 71
276 33 97 131 94 85
276 33 98 129 93 82
273 33 104 131 91 79
273 33 106 128 88 75
272 35 105 130 97 79
274 32 105 129 89 71
274 32 106 125 84 69
272 32 109 125 91 79
273 33 108 129 92 82
273 32 111 142 117 108
272 40 97 127 102 80
272 32 115 166 144 143
272 32 118 180 155 155
272 32 121 155 127 125
256 66 79 113 92 70
257 64 81 121 100 79
257 66 81 120 98 77
258 64 81 122 101 80
259 65 83 125 104 83
259 66 83 122 101 82
259 66 84 119 99 81
259 67 87 102 86 70
257 68 81 120 100 80
256 70 80 118 98 80
256 71 83 102 85 69
257 69 84 107 89 73
257 71 86 104 88 72
258 68 86 103 87 70
259 69 87 100 84 68
258 71 87 105 88 71
260 64 86 119 99 78
260 66 86 113 96 80
258 71 88 106 89 72
259 71 90 110 93 75
261 64 89 110 92 74
261 65 91 104 86 67
261 66 89 103 86 69
261 67 91 106 88 69
262 64 92 109 91 74
262 65 94 112 93 75
262 66 92 109 91 72
262 67 94 111 92 72
260 68 90 107 89 71
261 69 91 111 92 75
260 71 91 112 93 75
261 69 93 110 92 72
260 71 92 110 91 71
261 71 93 110 90 68
262 68 94 111 92 72
256 73 83 102 85 68
257 72 84 101 85 69
257 73 86 105 87 69
256 75 85 105 86 67
257 75 86 110 91 73
258 74 87 112 94 77
256 77 86 106 87 69
256 78 85 105 87 69
257 78 87 107 89 71
259 72 89 108 91 73
258 74 89 112 93 76
258 75 90 108 90 73
259 75 92 106 87 67
257 79 88 104 86 69
258 77 89 109 92 75
259 76 91 103 85 65
258 79 90 99 82 64
258 79 92 102 84 64
259 78 94 111 91 68
260 72 91 109 90 71
260 73 92 109 89 69
261 72 95 112 90 66
260 75 92 108 89 69
260 75 95 113 91 68
260 76 95 113 92 68
256 80 86 105 88 71
256 83 87 97 82 66
257 81 89 96 80 64
256 82 89 95 80 66
257 82 91 95 79 63
258 81 91 98 80 63
258 81 93 108 89 69
259 80 95 116 94 71
258 83 92 101 84 66
259 82 94 112 93 72
256 84 89 94 80 66
257 84 90 93 79 65
256 86 89 95 80 66
257 86 91 95 80 64
257 86 93 103 86 68
258 85 92 101 84 66
258 85 95 115 94 73
258 87 94 110 91 72
256 89 89 97 82 67
257 88 91 96 81 66
256 91 89 95 82 69
257 90 91 96 81 65
257 89 93 108 90 72
257 90 94 112 93 73
258 89 94 113 94 74
258 91 95 118 96 72
256 92 90 94 80 67
256 94 89 94 81 68
256 95 90 94 80 65
257 93 92 103 85 68
257 93 95 116 93 68
257 95 92 104 86 68
257 95 95 116 94 69
263 64 98 115 95 76
262 66 97 115 96 77
262 66 98 114 95 76
263 66 99 114 95 76
263 65 100 111 90 69
262 65 103 113 88 66
262 67 101 113 92 69
261 69 99 114 94 73
261 70 98 116 96 75
262 68 97 117 97 77
262 69 98 116 96 76
261 68 103 117 94 71
261 71 100 113 91 69
261 71 102 118 94 71
262 68 102 116 94 72
259 65 110 116 91 68
258 67 111 120 93 69
259 71 106 118 95 72
256 71 111 124 97 73
259 68 109 114 90 68
258 69 110 117 91 67
258 71 109 119 95 75
258 71 110 121 96 74
261 66 105 115 90 67
261 66 107 115 94 72
262 65 104 114 89 67
262 67 104 115 92 69
261 64 108 115 92 69
260 66 109 115 91 69
261 68 105 113 90 65
260 69 106 112 90 66
260 71 104 116 94 69
260 70 106 115 93 70
260 69 108 115 93 71
259 79 97 120 97 73
257 79 103 120 94 71
258 77 103 121 98 76
258 78 101 118 95 73
259 79 100 119 96 71
259 78 102 119 98 77
261 72 98 116 95 73
260 74 97 116 93 69
260 74 98 116 93 70
261 74 99 113 92 71
261 72 101 115 92 69
260 73 103 120 97 72
260 75 101 116 94 71
260 76 96 116 94 71
260 76 99 119 97 73
260 78 98 120 97 73
259 73 105 119 95 70
259 73 107 122 97 74
259 75 105 121 95 70
259 74 106 121 96 72
256 73 111 127 98 77
256 75 108 125 96 74
257 75 109 125 95 74
258 73 108 122 96 75
256 77 107 124 92 72
256 79 105 125 92 72
256 78 106 126 93 73
258 76 104 121 95 71
259 76 105 120 94 69
256 76 109 127 97 75
260 72 105 118 94 70
257 64 113 117 92 67
256 66 113 120 93 67
257 67 113 118 92 66
258 66 112 118 91 67
257 68 112 122 96 70
259 80 97 121 98 73
258 81 99 122 97 70
259 82 96 118 96 71
258 82 99 122 97 70
256 81 103 122 95 72
257 82 101 121 97 73
256 83 103 122 96 74
258 81 100 123 98 73
257 84 99 122 98 73
257 87 98 120 96 71
258 85 97 118 95 71
258 86 96 117 95 71
256 85 101 119 95 72
256 84 102 120 96 73
256 86 101 117 94 69
256 86 102 116 93 69
256 81 105 126 94 73
257 88 97 120 96 71
257 89 98 122 99 74
256 90 99 124 100 75
258 88 96 117 94 69
258 91 96 121 97 71
256 90 100 124 99 74
257 93 97 121 96 70
257 92 98 124 99 74
257 95 97 120 96 70
256 92 100 124 99 74
256 97 91 102 86 69
256 96 92 105 87 68
257 96 94 113 92 69
256 98 93 110 90 68
257 98 95 118 95 70
256 101 91 105 87 67
256 100 94 115 93 71
257 100 95 117 95 72
256 102 95 117 95 72
256 105 94 114 94 72
256 110 93 111 90 67
256 112 90 103 86 66
256 114 91 105 86 66
256 113 92 107 87 66
256 114 93 109 89 67
256 116 90 102 85 67
256 118 90 102 84 66
256 116 93 108 88 67
256 118 92 106 87 66
256 119 94 107 87 67
256 127 81 81 73 65
256 125 84 86 75 65
256 125 87 92 79 66
257 127 85 87 75 63
257 126 87 93 79 66
256 121 88 97 81 66
256 121 91 102 85 67
257 123 89 98 82 66
257 123 91 100 84 67
256 120 94 106 86 66
256 123 93 101 83 65
256 124 88 95 80 65
257 125 89 95 80 65
257 126 88 94 80 65
257 126 91 96 80 63
257 124 93 99 82 64
256 125 94 98 81 64
257 127 93 95 79 63
257 127 94 95 79 62
257 96 97 120 97 72
256 98 97 120 97 72
256 100 96 120 98 75
256 127 96 94 78 60
256 10 130 122 108 99
258 10 128 121 107 98
258 10 131 125 111 102
257 10 132 125 111 102
257 11 134 127 115 106
258 11 133 126 113 105
259 10 134 129 117 109
260 10 129 124 110 100
261 10 130 125 111 102
263 10 129 124 110 99
260 10 132 127 114 105
260 11 134 130 118 111
262 10 132 127 114 105
262 10 135 131 119 111
256 11 137 130 118 111
257 11 138 131 119 113
259 11 137 131 120 113
256 11 140 131 120 114
258 11 141 131 120 115
259 11 143 130 119 113
256 13 142 130 119 113
258 12 142 131 120 114
261 11 136 131 119 113
261 11 139 132 121 115
263 11 136 131 120 113
263 11 139 132 121 114
260 11 142 131 120 114
262 11 141 131 120 114
263 11 142 131 120 114
265 10 128 122 106 94
265 10 131 126 111 100
266 10 130 124 109 97
264 10 133 129 116 107
265 10 134 130 116 108
267 10 133 128 114 104
268 10 128 120 103 89
269 11 129 121 104 90
269 11 130 122 105 92
271 11 129 120 103 88
268 10 132 126 111 100
269 11 133 127 112 101
269 11 134 128 113 103
270 11 134 127 112 101
264 10 137 132 119 112
264 11 138 132 120 114
266 10 137 131 118 110
266 11 138 132 119 111
264 11 141 132 121 114
265 11 142 132 120 114
267 11 141 132 119 112
264 12 143 131 119 112
268 10 137 131 117 109
268 11 138 131 118 109
270 11 137 130 116 106
271 11 138 130 115 105
269 11 141 131 118 109
270 11 140 130 117 107
270 11 143 131 117 108
271 12 141 129 114 103
257 13 144 132 121 115
257 15 144 113 101 92
259 12 144 128 117 112
259 15 145 103 85 70
260 13 145 120 108 103
260 14 145 118 107 101
262 12 144 128 116 109
262 13 146 116 102 96
262 15 146 102 79 63
264 12 144 129 117 110
264 13 146 116 101 94
264 14 147 104 85 75
267 12 144 131 118 110
267 13 146 124 110 101
266 14 148 106 87 77
268 12 145 128 114 105
269 13 146 126 111 101
270 13 145 127 112 101
271 13 146 127 111 100
268 15 148 104 82 63
271 14 148 122 104 89
256 19 143 151 135 132
256 23 138 174 155 150
258 23 139 181 161 158
257 21 141 165 147 145
256 22 140 173 153 150
258 21 142 155 135 133
258 22 141 167 148 146
259 23 141 162 143 138
260 23 141 155 134 125
261 22 142 151 122 103
262 22 143 157 122 102
256 25 135 108 78 88
256 26 135 112 86 99
259 25 135 190 169 168
259 26 134 166 142 143
257 31 128 180 160 156
257 30 131 139 108 106
258 31 128 179 158 156
258 30 130 153 134 125
257 28 132 94 63 65
261 27 133 179 165 163
261 26 135 189 170 166
262 27 134 187 166 164
260 29 131 151 137 136
260 31 128 177 153 149
261 30 130 159 141 140
262 30 128 151 126 119
263 31 128 149 126 124
262 28 132 162 150 148
263 29 132 152 141 141
257 24 137 182 159 159
258 25 137 193 172 173
259 24 138 185 164 162
261 25 136 187 167 165
261 24 139 173 149 148
263 25 137 183 157 156
263 25 138 171 142 139
260 24 140 170 148 145
263 24 140 144 113 102
264 23 143 148 109 91
266 23 142 141 94 73
269 23 139 149 117 97
270 23 139 148 116 97
269 23 140 146 111 93
269 23 143 119 72 58
271 23 141 122 77 63
264 27 133 187 164 165
265 27 134 189 164 165
267 26 135 168 134 132
265 29 130 137 122 127
265 30 128 194 175 174
266 29 131 164 145 144
267 30 128 125 99 91
264 28 132 176 160 155
265 29 132 170 154 149
267 28 133 191 166 165
269 27 133 185 152 150
269 27 134 166 130 128
270 27 132 184 153 149
271 27 133 151 116 109
268 29 131 179 160 159
268 31 128 127 108 104
269 30 130 163 147 149
270 29 130 183 164 163
270 30 128 140 131 128
268 29 132 187 167 164
271 28 132 187 159 156
264 25 139 144 109 99
265 26 136 181 152 150
267 25 137 106 69 46
267 24 139 148 115 95
265 24 140 149 114 99
267 24 141 148 105 88
269 25 136 74 37 39
268 26 136 95 51 46
271 24 137 112 71 58
257 16 145 104 85 69
258 17 145 120 89 76
259 18 144 136 101 91
260 16 146 111 78 56
260 19 145 142 101 87
262 16 147 110 76 55
262 19 145 147 100 91
263 19 146 143 96 86
261 21 144 154 116 97
263 21 145 155 110 97
264 16 147 112 76 56
265 18 147 133 94 80
265 17 148 122 86 69
267 17 148 122 83 65
264 21 145 154 110 96
265 21 146 153 107 96
265 22 145 158 118 95
267 20 147 151 111 93
267 22 145 157 114 97
267 22 147 145 101 84
269 17 148 119 75 64
270 16 148 99 68 42
270 18 148 125 87 72
269 21 147 153 111 92
269 23 145 131 95 81
271 21 147 150 101 89
270 22 146 144 107 96
268 20 148 149 112 87
270 21 148 150 104 89
273 11 128 117 100 85
273 11 131 120 102 88
272 11 133 125 108 96
273 11 134 125 108 95
275 12 128 116 99 84
275 12 131 118 100 85
274 12 132 120 103 88
274 12 135 124 107 93
277 12 128 116 99 84
276 12 131 117 99 84
278 13 128 116 99 84
278 13 131 116 98 82
279 14 130 116 98 82
277 13 132 117 99 83
276 13 135 121 102 86
278 13 134 118 98 81
278 14 134 117 98 81
279 15 135 118 97 77
272 11 139 129 113 102
272 12 139 128 112 100
275 12 136 123 105 90
275 12 138 124 106 91
272 12 141 127 111 100
273 12 142 125 109 97
274 13 141 123 106 94
275 13 142 120 104 91
276 13 136 122 103 87
276 13 139 122 102 86
278 13 137 120 99 82
279 15 137 123 99 78
279 15 138 123 99 75
277 14 141 120 101 87
276 15 143 100 79 64
280 14 128 116 99 85
281 15 129 115 97 82
281 15 130 114 96 80
280 15 134 116 95 76
273 13 144 125 109 97
272 14 147 125 107 94
274 13 144 123 106 95
275 14 145 116 100 88
274 15 147 102 79 59
275 23 133 144 113 91
275 23 134 150 114 96
279 19 134 141 113 91
279 23 128 134 113 101
279 22 130 115 86 71
276 21 135 151 112 96
276 22 133 142 110 91
276 22 134 147 111 93
279 20 132 110 77 57
279 20 134 140 111 90
272 23 136 141 107 91
272 22 138 141 108 85
275 21 136 153 116 95
275 21 139 144 101 77
275 22 137 156 118 97
272 23 141 122 80 62
272 23 142 114 72 53
274 21 141 145 109 87
274 20 143 142 112 86
277 19 137 140 104 86
279 16 136 132 106 82
278 17 138 142 119 101
278 18 137 140 113 93
279 19 136 147 114 93
277 17 140 117 88 66
276 17 143 108 79 50
276 19 141 130 92 70
276 18 143 126 96 67
278 17 140 121 95 72
277 20 137 147 108 91
278 20 136 150 113 95
273 27 131 163 132 126
275 26 129 159 130 127
274 27 131 141 111 100
273 24 133 137 109 85
272 25 134 128 105 85
272 27 132 147 115 107
275 24 132 125 97 80
272 29 128 187 163 163
272 28 130 189 161 158
275 28 128 180 156 155
276 25 131 87 50 47
276 26 129 148 122 116
278 24 128 143 121 109
279 24 129 127 103 87
281 16 130 113 94 76
281 18 130 129 108 85
282 16 129 114 95 79
282 18 128 115 98 83
282 18 130 129 107 85
281 16 133 106 87 69
280 17 134 129 105 85
280 19 133 126 101 80
281 20 129 113 92 74
280 21 131 100 57 48
280 23 128 142 123 114
282 21 128 124 108 99
273 18 147 128 92 72
274 16 147 105 71 53
274 19 145 138 108 84
274 18 146 125 97 67
272 16 148 100 69 40
272 19 148 131 93 74
272 21 146 149 104 94
272 22 144 135 108 87
273 22 145 146 116 97
274 21 144 144 115 93
276 16 144 95 68 45
258 32 128 175 154 153
259 125 175 134 75 26
261 120 175 124 87 59
261 123 173 132 76 29
261 122 174 132 77 33
262 121 174 125 85 54
262 123 172 131 77 33
261 126 171 132 76 31
263 124 170 129 80 43
263 127 169 127 83 52
263 126 170 130 79 39
261 125 172 133 75 28
260 127 173 133 81 8
260 126 174 135 78 16
266 123 171 128 85 53
264 120 175 123 89 62
264 122 173 126 85 53
266 121 173 126 88 58
267 120 174 126 90 62
266 123 172 128 85 54
265 125 169 127 84 54
265 124 171 128 83 50
265 126 169 127 86 57
266 124 171 128 84 52
266 126 169 127 87 59
268 123 171 131 89 59
268 120 175 127 92 66
268 122 172 130 89 60
270 120 175 130 95 69
270 122 173 132 93 66
271 122 174 134 95 68
268 125 170 129 89 61
268 127 168 128 91 66
270 124 171 132 92 63
270 126 169 132 95 69
259 119 178 121 90 65
260 119 177 122 89 64
260 119 179 119 91 68
263 117 179 116 93 73
262 118 178 118 92 70
261 117 181 115 94 73
260 119 180 119 92 68
260 118 183 114 94 74
262 117 180 116 93 73
262 116 182 113 94 75
263 116 183 112 94 76
261 118 185 112 94 75
261 119 187 111 91 67
263 116 185 111 94 77
263 116 187 110 94 78
263 116 188 110 94 78
262 118 189 111 96 79
263 118 190 117 101 85
259 120 176 125 85 54
258 120 179 124 86 51
258 122 177 132 77 20
258 122 178 131 77 19
258 121 180 127 82 35
259 121 182 123 83 22
259 122 181 129 73 11
259 123 183 128 76 3
259 124 176 134 76 21
258 125 179 137 81 1
259 127 176 137 81 7
258 124 180 133 79 5
259 124 182 130 74 10
258 126 181 136 75 12
259 126 182 135 75 10
260 120 177 122 88 61
