ply
format ascii 1.0
comment Version 2, Copyright 2017, 8i Labs, Inc.
comment frame_to_world_scale 0.179523
comment frame_to_world_translation -45.2095 7.18301 -54.3561
comment width 1023
element vertex 2045
property float x
property float y
property float z
property uchar red
property uchar green
property uchar blue
end_header
435 710 139 181 200 224
435 711 140 102 148 193
435 710 143 174 188 212
439 705 136 126 169 214
438 707 136 158 176 216
438 707 139 185 192 214
439 705 142 214 225 240
439 706 141 218 217 228
439 706 143 123 161 206
437 708 136 158 182 217
436 709 139 222 227 243
437 708 140 226 226 236
437 708 143 128 137 201
432 713 133 201 208 224
433 712 134 215 219 233
433 712 136 193 209 232
433 712 139 175 198 225
432 714 138 173 197 226
433 712 140 203 216 237
432 713 143 197 205 221
432 714 141 190 202 223
434 712 142 192 205 225
441 704 135 144 154 197
441 704 136 175 176 216
441 704 139 147 170 218
440 704 143 155 166 220
433 711 146 197 206 224
434 711 145 194 205 225
434 710 147 194 207 227
432 709 151 176 209 245
433 710 149 197 214 239
432 711 150 196 216 243
435 709 149 185 208 236
435 708 151 123 174 217
435 710 148 200 212 232
439 705 145 130 151 209
438 707 144 125 139 203
438 706 147 162 181 214
436 707 149 170 196 225
436 707 151 143 184 222
439 705 149 149 161 212
439 705 150 158 168 220
439 706 148 147 167 212
436 709 145 182 190 212
436 709 147 195 207 227
437 708 148 198 212 233
433 705 154 95 151 196
432 707 154 128 165 199
434 705 155 124 165 208
434 707 153 154 188 223
435 706 154 78 136 199
432 708 153 142 173 205
433 709 152 152 194 234
436 705 153 84 141 210
436 705 154 85 130 203
436 706 153 66 137 203
438 705 153 154 167 223
432 713 145 204 211 229
432 712 146 200 210 229
432 714 144 203 210 227
440 704 145 155 159 215
440 704 146 153 155 210
440 704 149 166 175 219
417 705 161 188 79 80
416 706 161 177 61 68
419 705 161 162 101 115
418 707 161 179 96 106
416 709 160 180 92 96
416 711 160 166 83 83
419 708 160 135 116 145
420 704 161 140 134 154
420 704 162 144 143 160
421 707 160 124 145 175
422 706 160 138 159 189
421 709 160 102 130 162
448 663 130 121 123 129
448 662 133 84 110 134
448 663 135 60 85 112
449 664 128 99 116 140
449 664 131 112 115 122
450 665 130 113 121 133
450 666 129 94 115 138
449 664 133 101 120 141
450 664 133 125 138 154
450 664 134 96 115 134
449 668 128 50 91 134
450 669 128 66 101 136
450 670 128 60 97 133
451 671 129 85 111 139
453 666 131 104 113 126
452 665 134 123 133 146
453 666 133 108 114 124
453 666 135 96 113 132
454 667 135 78 101 123
452 669 130 133 141 154
452 671 129 119 134 152
454 669 131 153 154 162
455 671 131 171 169 175
455 669 133 139 141 148
448 665 137 45 58 71
448 665 139 75 71 69
450 664 136 51 78 106
451 666 136 38 59 95
451 666 138 43 51 71
448 667 141 98 83 67
448 667 143 104 84 62
449 668 142 103 85 67
451 668 141 98 82 66
450 669 143 107 86 64
451 671 143 105 83 65
453 666 136 67 91 114
454 667 136 48 78 105
453 668 139 51 49 63
454 668 138 34 40 81
455 669 139 31 35 74
452 670 141 93 75 63
452 671 143 101 82 67
454 670 140 62 55 62
455 671 141 66 55 62
456 668 133 125 130 138
456 669 135 91 110 129
456 671 132 173 171 176
457 670 135 106 119 133
456 668 137 51 74 100
456 669 138 53 69 94
457 670 138 65 76 90
458 671 137 113 125 140
458 671 139 78 80 87
456 671 141 52 50 65
456 671 143 71 60 58
459 671 141 64 56 74
448 668 145 107 86 61
448 668 146 109 86 60
449 669 147 112 87 61
450 670 144 111 87 65
451 671 145 111 87 63
451 671 146 112 87 61
448 669 150 115 91 66
449 670 151 113 89 63
450 671 150 112 88 60
448 669 153 114 91 66
449 671 153 113 90 65
449 671 155 113 90 66
448 669 156 114 93 70
449 670 157 112 92 70
448 671 159 98 79 61
448 671 160 82 69 57
449 674 128 101 119 143
451 673 129 108 122 146
451 674 129 105 119 144
449 679 128 85 113 141
451 676 129 80 102 137
450 678 129 70 104 138
451 678 130 82 106 139
452 673 130 136 144 157
453 674 130 148 152 164
454 673 131 178 174 178
455 674 131 183 180 186
452 676 130 99 111 143
452 678 130 90 106 140
454 676 131 118 132 158
455 676 132 134 148 168
454 679 132 98 117 155
454 672 143 89 74 66
449 683 128 115 136 161
451 680 129 85 111 137
450 682 129 95 114 138
451 682 130 125 137 154
449 686 128 118 140 165
450 684 129 85 107 146
451 685 130 93 116 157
450 687 130 108 136 175
451 685 132 98 124 166
452 680 131 103 117 140
452 682 131 135 147 165
452 682 132 126 142 161
453 683 133 142 152 173
454 681 133 121 143 173
455 681 134 60 100 172
454 683 134 155 168 188
452 684 133 92 107 157
453 684 134 157 166 182
452 687 133 137 154 183
453 686 135 111 118 164
454 683 137 76 109 173
455 683 138 99 121 186
453 685 136 126 136 173
453 687 136 100 111 166
454 684 136 132 150 182
454 685 138 92 117 181
453 687 140 147 157 190
455 684 141 130 143 194
455 685 143 128 134 192
454 686 142 108 127 192
456 672 133 176 174 181
457 673 134 126 144 167
457 674 133 122 142 166
458 673 134 96 120 147
458 675 134 133 153 179
456 677 133 185 192 207
457 677 135 172 176 190
457 678 135 172 180 195
459 676 135 189 191 202
459 675 136 203 201 208
458 672 142 54 61 73
457 678 136 194 198 209
459 676 137 210 207 214
458 679 137 212 214 224
459 679 138 188 199 223
460 673 137 105 129 155
461 673 138 88 116 145
460 675 137 160 175 199
461 675 139 123 154 191
460 673 141 101 82 62
460 673 142 86 69 64
461 674 141 93 82 90
462 675 141 104 130 165
460 677 137 212 212 220
461 676 139 143 163 212
461 676 140 152 166 225
460 679 140 142 154 208
460 679 143 179 189 227
462 676 140 141 165 219
462 677 142 143 167 222
456 681 136 105 129 189
457 680 138 122 150 205
456 682 139 129 148 204
456 682 140 142 151 195
457 682 141 209 210 224
457 683 142 205 210 226
458 681 141 232 228 234
459 680 142 236 235 244
458 682 143 235 232 241
451 672 147 113 87 60
452 672 144 103 85 69
452 672 147 111 88 66
454 672 145 90 77 70
454 673 147 93 76 69
452 673 148 110 87 68
452 672 151 111 87 64
453 674 151 97 80 71
454 673 150 100 79 67
455 674 150 86 69 58
451 672 154 104 84 61
449 672 159 77 65 55
451 673 156 82 69 58
450 673 159 75 80 89
452 673 152 108 86 64
452 673 155 85 72 63
454 674 152 89 71 55
455 675 153 79 69 59
455 675 154 73 64 57
452 674 157 67 73 84
452 674 159 79 96 118
454 675 156 61 62 73
453 676 159 85 115 153
454 676 157 60 87 125
454 677 158 79 112 161
454 678 159 90 123 174
455 685 145 188 193 216
455 686 144 128 137 194
455 686 147 205 208 225
455 686 148 213 216 228
454 687 151 219 222 237
449 682 159 217 221 233
450 682 159 204 212 232
451 683 158 141 156 205
448 685 157 97 126 195
448 685 158 90 114 192
448 687 157 105 131 191
450 685 156 211 219 233
450 684 158 126 139 196
455 683 155 80 121 202
453 680 159 89 123 195
453 683 157 135 151 205
454 681 157 148 168 216
454 681 158 128 152 205
455 683 156 96 126 204
453 687 153 184 204 243
453 686 155 125 149 211
454 684 155 81 124 200
455 685 154 178 204 241
455 686 152 224 230 244
453 684 156 116 140 199
457 672 145 63 53 58
457 673 147 72 61 56
459 672 144 74 70 75
459 673 146 61 52 57
456 674 148 72 63 59
456 674 150 77 65 55
457 675 150 86 78 74
459 674 148 65 63 68
459 675 150 94 101 113
459 678 151 73 108 154
461 674 144 93 80 77
460 674 147 64 59 66
460 674 148 68 69 79
461 676 146 109 132 173
460 679 145 212 221 238
460 679 146 208 215 232
461 679 147 211 217 233
460 676 148 124 145 170
461 677 148 130 154 186
460 678 149 113 142 177
460 678 151 75 112 159
457 675 152 87 82 81
457 677 153 62 86 109
457 677 154 63 89 114
458 676 152 74 89 108
458 679 153 73 109 153
458 678 154 57 84 127
456 678 157 78 104 152
457 683 145 211 217 233
459 681 145 203 209 233
458 683 145 197 206 228
458 683 147 217 222 237
457 683 150 211 218 238
458 681 151 167 184 209
458 682 148 201 209 230
459 682 149 185 198 222
456 684 144 215 218 234
457 684 145 218 221 235
457 684 146 208 210 227
457 684 149 209 212 232
457 684 150 220 224 240
460 680 147 204 210 229
457 680 155 75 99 168
457 682 153 107 142 209
456 683 154 60 114 201
458 681 152 124 150 197
458 681 154 98 134 193
456 684 152 178 202 235
448 688 128 145 169 195
449 689 129 62 100 171
448 691 129 69 103 180
449 690 131 152 174 204
449 690 132 136 168 204
450 689 133 114 138 192
451 689 134 106 123 188
450 691 133 136 168 202
451 690 135 91 115 183
448 693 132 196 208 231
449 692 134 81 116 193
448 694 134 126 150 212
452 688 134 122 144 180
451 690 137 215 221 234
451 691 140 157 180 225
448 695 137 199 205 232
449 694 138 229 233 245
450 692 137 186 197 238
450 692 139 176 195 229
450 694 139 207 219 240
449 695 143 189 206 232
451 693 141 160 188 225
451 693 142 137 170 215
450 694 143 181 203 230
453 688 137 105 117 173
453 688 139 123 123 178
452 691 139 177 195 228
453 689 141 144 148 198
452 690 140 112 130 195
452 690 143 135 145 204
448 696 137 229 235 251
448 697 140 174 191 225
448 697 142 203 212 238
451 691 149 160 186 220
451 691 150 130 162 213
449 695 144 194 208 237
449 694 146 166 185 229
451 692 144 100 119 204
450 693 146 125 144 211
450 694 145 152 173 223
448 692 151 138 154 210
449 693 150 140 146 209
449 694 148 115 145 214
450 693 149 137 145 210
453 688 145 117 143 202
453 689 146 143 165 211
452 691 145 138 148 204
454 688 144 111 139 195
453 688 148 111 134 203
452 689 151 158 175 222
452 690 148 153 174 221
452 690 151 132 156 217
452 692 144 107 118 200
449 689 154 91 119 198
449 691 153 63 105 191
451 688 153 126 147 215
451 688 154 129 144 211
451 690 152 111 139 207
448 692 152 122 140 205
452 688 153 135 155 223
452 688 154 115 131 209
448 672 161 111 114 121
448 673 162 153 162 178
448 674 163 135 150 172
450 672 160 75 77 83
450 675 161 173 179 192
448 676 163 191 196 209
449 678 161 192 199 215
449 678 162 157 169 195
451 676 161 155 165 181
450 679 161 198 203 218
452 676 160 125 144 168
448 681 160 217 220 231
448 680 162 191 197 213
450 680 161 199 204 219
256 768 91 117 98 85
256 771 91 134 120 109
257 770 92 151 138 130
259 769 92 64 63 64
256 772 91 174 158 147
256 774 92 184 163 145
258 773 92 169 151 136
259 774 92 164 144 128
261 769 92 78 80 83
262 768 92 152 139 133
263 769 93 169 149 132
263 771 92 152 135 121
261 773 92 83 81 82
262 772 92 130 121 117
263 773 93 150 128 105
256 776 92 159 141 126
256 779 92 132 116 104
259 776 92 153 140 130
259 779 92 138 112 93
257 780 93 161 140 125
257 783 93 191 152 106
259 781 93 130 108 89
260 776 92 161 141 125
260 779 92 163 140 122
261 779 93 158 134 113
262 778 92 173 148 122
260 780 93 133 114 97
260 783 93 135 114 94
263 780 93 164 140 118
263 783 93 150 126 103
265 769 93 172 152 137
265 770 93 162 143 128
267 769 93 133 119 108
264 772 93 144 121 98
264 775 92 146 125 106
266 773 93 149 129 110
267 774 93 150 128 109
269 769 93 144 123 103
270 768 93 112 93 73
270 771 93 127 111 96
269 772 93 143 125 111
269 775 93 159 131 101
270 774 93 136 119 104
264 776 93 134 112 91
264 778 92 152 127 100
266 776 93 149 127 106
266 779 93 135 113 92
265 780 93 177 143 105
265 783 93 197 155 102
266 782 93 148 121 92
268 777 93 174 136 87
269 778 93 176 138 89
271 777 93 153 126 99
268 780 93 148 111 61
268 783 93 125 91 66
271 780 93 173 134 81
271 783 93 181 147 109
256 786 93 183 137 76
258 785 93 137 110 96
258 786 94 182 147 111
256 789 94 115 89 59
257 790 94 117 99 89
259 788 94 203 161 110
259 790 94 192 160 127
261 784 93 126 103 85
261 786 94 120 97 82
263 785 93 119 96 74
262 787 94 137 92 70
261 788 94 170 129 93
261 790 94 189 156 123
263 788 94 133 105 84
263 790 94 174 148 120
257 792 95 84 69 67
257 795 95 116 112 116
258 794 95 33 52 83
260 792 95 195 173 157
260 795 95 137 126 121
263 792 95 172 155 143
263 795 95 184 164 148
265 784 93 201 162 118
264 786 94 147 130 118
267 784 93 155 127 103
266 787 94 189 164 143
265 788 94 154 139 129
265 790 94 90 114 136
267 788 94 181 158 139
267 790 94 183 168 160
269 785 93 148 109 72
269 787 94 162 141 122
270 786 93 86 85 87
268 789 94 151 141 136
269 790 94 167 164 169
271 789 94 116 127 141
264 792 95 150 142 140
264 795 95 167 157 153
267 792 94 164 149 141
267 794 95 166 150 139
265 797 95 176 163 157
268 792 94 181 167 159
269 793 95 153 133 115
270 792 94 173 165 164
270 794 95 154 127 101
271 795 95 176 163 155
268 798 95 174 161 153
271 797 95 107 129 151
272 768 93 149 133 121
272 771 93 129 113 100
275 768 93 145 127 112
275 771 93 156 131 105
272 774 93 118 100 86
274 773 93 155 127 97
275 774 93 162 130 93
277 769 93 123 107 93
278 768 93 142 126 114
278 771 93 134 117 103
277 772 93 130 114 99
277 775 93 126 104 85
278 774 93 120 99 75
272 777 93 120 99 78
273 778 93 129 101 81
275 777 93 184 138 72
272 780 93 143 120 95
272 783 93 177 151 127
275 780 93 171 132 85
275 783 93 187 161 137
276 778 93 176 128 66
278 777 93 106 97 91
279 778 93 135 110 88
277 781 93 142 120 101
278 780 93 142 83 24
278 783 93 95 100 107
281 768 93 159 140 125
281 770 93 131 111 91
283 769 94 131 116 103
283 771 94 123 109 98
280 774 93 173 140 102
282 773 93 129 109 89
282 775 93 151 129 109
283 775 94 98 86 78
284 770 94 114 95 78
286 769 94 150 124 96
287 770 94 172 135 90
285 772 94 147 121 94
285 775 94 110 93 77
286 774 94 145 115 80
280 777 93 163 132 98
281 778 93 172 141 109
283 777 93 100 85 75
280 780 93 168 144 123
280 783 93 145 134 127
282 781 93 153 137 125
282 783 93 146 138 136
284 776 94 107 85 66
284 779 94 125 104 85
287 776 94 144 120 96
287 779 94 168 148 132
284 782 94 102 111 120
286 781 94 154 139 129
287 782 94 173 155 143
273 785 93 179 155 134
273 787 94 190 170 155
275 784 94 187 163 145
275 786 94 179 158 141
273 789 94 156 142 134
274 788 94 186 167 154
274 791 94 165 150 141
276 784 94 162 146 136
276 787 94 119 116 118
278 784 94 45 87 117
279 786 94 130 130 135
277 789 94 103 110 122
278 788 94 127 125 126
278 791 94 163 149 140
273 792 94 135 125 121
273 794 94 166 148 135
275 793 94 160 116 93
272 796 95 63 104 134
272 799 95 132 139 149
274 797 95 125 134 148
274 799 95 107 115 125
277 792 94 163 153 148
277 795 94 70 106 135
278 794 94 54 103 138
276 797 94 131 132 138
276 799 95 139 127 123
278 797 94 122 127 137
278 799 95 96 75 74
280 785 94 151 143 141
281 786 94 167 152 141
283 785 94 107 113 124
280 788 94 142 128 119
280 791 94 157 112 80
283 788 94 137 127 121
283 791 94 108 124 141
284 786 94 124 122 124
286 785 94 158 140 127
287 786 94 148 131 119
285 789 94 126 92 57
286 788 94 146 107 89
286 791 94 119 117 119
281 792 94 162 146 135
281 795 94 131 117 108
282 794 94 150 152 161
280 797 94 94 67 49
281 798 94 104 82 67
283 797 94 171 158 152
284 792 94 54 98 131
284 795 94 120 122 133
287 792 94 120 120 125
287 794 94 119 107 100
285 796 94 115 125 139
284 799 94 64 116 154
286 797 95 82 126 161
287 798 95 56 109 149
256 796 96 177 162 153
256 799 96 189 169 154
258 796 96 103 111 128
258 799 96 190 176 169
260 796 96 113 101 93
260 799 96 141 130 123
263 796 96 191 167 148
263 799 96 184 130 95
265 798 96 178 158 143
266 799 96 140 160 181
269 798 96 184 175 172
273 800 95 126 113 105
275 802 95 77 132 176
276 802 95 72 130 175
278 801 95 112 142 169
278 803 95 154 156 162
280 800 94 149 124 103
280 802 95 150 99 68
282 800 95 149 143 142
282 803 95 211 173 134
282 804 95 171 134 87
285 801 95 182 171 164
286 800 95 145 145 149
286 803 95 137 130 129
256 801 97 168 139 115
257 802 97 187 128 102
259 800 97 181 166 158
259 803 97 157 151 151
256 806 98 60 106 140
257 807 99 179 166 161
258 806 98 154 133 118
260 800 97 172 156 144
260 802 97 115 137 159
262 801 96 166 147 133
262 803 97 76 109 135
260 804 98 139 142 151
260 807 98 105 78 64
263 805 97 104 100 101
263 806 98 98 107 121
257 809 99 165 152 148
259 809 99 125 99 70
257 810 100 125 143 163
259 811 100 157 142 131
257 813 101 143 117 104
256 815 102 196 166 137
259 813 100 111 99 105
259 815 101 94 81 77
261 809 99 158 147 142
263 808 98 56 116 158
263 810 99 181 114 56
263 811 100 217 151 77
261 813 100 188 162 138
261 815 101 193 161 132
262 813 101 199 169 140
262 815 101 208 154 114
264 800 96 172 146 127
264 802 97 142 146 156
266 800 96 59 126 170
266 803 97 144 142 146
264 805 97 146 140 140
264 807 98 74 137 183
267 804 97 129 135 146
266 807 98 97 141 178
269 800 96 162 141 124
269 802 96 137 113 95
271 800 96 120 94 73
271 803 96 120 101 85
268 806 97 115 134 153
269 807 98 170 148 132
271 804 97 148 129 114
271 807 97 141 120 110
265 809 98 169 170 177
265 811 99 135 139 144
267 809 98 227 199 175
267 811 99 162 145 131
265 813 100 206 171 139
265 815 102 211 143 103
267 813 100 198 140 102
266 815 102 210 141 103
268 809 98 214 185 159
269 810 98 171 138 100
270 808 98 207 137 68
270 810 99 206 160 122
271 812 99 209 135 98
269 813 100 209 134 97
268 815 102 210 140 101
270 812 100 210 135 101
271 813 101 211 141 100
271 814 102 212 141 102
257 817 102 202 159 118
257 819 103 207 143 100
259 817 103 202 140 101
261 816 102 201 143 107
262 816 103 208 142 100
256 819 104 206 141 102
259 818 104 207 137 104
256 821 106 211 146 104
257 823 107 214 151 110
259 821 106 213 149 110
260 818 104 209 142 104
261 819 105 210 145 103
263 818 104 211 143 104
260 820 106 212 147 107
260 823 107 216 153 117
263 820 105 213 149 108
262 823 107 216 155 113
257 825 107 216 149 111
259 826 107 221 160 121
257 826 108 217 151 111
258 827 108 220 158 118
256 829 109 221 160 119
257 830 109 224 163 123
258 828 108 221 160 119
258 830 109 225 165 124
259 831 110 227 163 124
260 826 107 223 164 124
263 824 106 217 153 111
263 826 107 223 161 119
262 827 108 224 161 117
261 829 109 226 162 122
261 830 110 227 161 119
263 828 108 226 163 123
262 830 110 228 164 123
264 816 103 210 142 100
266 816 103 211 142 106
268 817 103 213 145 104
271 816 102 214 142 104
271 819 103 218 150 110
264 819 105 213 146 107
266 818 104 213 145 106
264 821 105 215 153 111
264 823 106 218 154 113
266 821 105 217 151 111
267 822 105 218 152 112
268 817 104 214 146 104
269 819 104 216 150 107
268 820 105 217 152 113
268 822 105 219 152 110
270 821 104 220 153 113
270 823 105 222 156 116
264 825 107 221 158 116
264 827 107 224 161 119
266 825 107 222 157 114
267 826 107 225 160 119
265 828 108 226 163 120
264 831 110 230 164 128
267 828 108 228 163 123
266 831 110 231 166 128
269 824 106 223 156 115
269 827 107 227 161 120
271 824 106 225 158 118
271 827 107 229 163 122
269 828 108 228 161 121
269 830 109 232 164 124
271 828 108 231 163 123
271 830 110 233 165 126
273 801 96 98 84 72
274 801 96 92 98 110
272 804 96 162 164 173
273 805 97 154 143 143
274 804 96 129 142 155
274 807 97 179 155 133
276 804 96 196 172 151
276 807 97 193 164 134
278 805 96 153 133 119
278 807 97 205 156 117
273 808 97 78 63 67
272 811 99 206 136 98
274 809 98 189 140 106
275 811 99 211 138 98
272 812 100 210 138 101
273 813 101 214 141 103
272 815 102 214 142 105
275 812 100 214 142 105
275 814 101 218 148 111
277 808 97 208 140 101
277 810 98 214 142 104
279 809 98 214 145 101
276 812 99 215 145 107
276 813 100 218 148 110
276 815 101 219 148 107
278 813 100 220 151 111
278 815 101 222 150 110
280 805 96 95 79 71
280 807 97 203 141 106
283 804 96 192 164 140
283 806 97 202 136 94
284 804 96 202 168 139
284 806 97 202 136 93
286 804 96 176 125 87
287 805 97 187 125 86
286 807 98 212 144 104
281 809 97 213 145 102
281 810 98 218 148 105
283 809 98 216 149 106
280 812 99 222 150 110
280 813 100 223 153 111
280 815 101 226 157 114
282 813 100 227 158 119
282 815 101 229 161 120
285 808 97 213 143 101
284 811 99 223 155 111
286 809 98 218 148 108
286 810 99 221 151 109
287 811 100 226 156 114
285 813 100 229 160 117
284 815 102 232 165 122
287 812 100 228 158 116
286 815 102 232 166 124
272 817 103 218 145 106
272 819 103 219 149 109
275 816 102 216 143 100
275 818 103 222 154 114
276 816 101 221 149 110
277 817 102 224 154 113
277 818 103 226 159 116
278 817 102 226 157 118
278 819 103 227 160 118
272 821 104 221 154 114
272 823 105 224 158 118
274 821 104 223 156 116
274 823 105 226 162 121
276 820 104 225 156 114
276 823 105 229 162 122
278 820 104 229 163 123
278 822 105 230 163 121
279 823 106 233 166 125
273 824 106 227 162 120
273 827 107 230 162 123
275 825 106 231 165 124
272 827 108 231 164 123
272 828 109 231 164 122
272 830 109 233 166 125
273 831 110 235 167 127
275 828 109 235 167 127
275 830 110 235 167 127
276 825 107 232 165 124
277 826 107 233 167 126
279 825 107 234 167 126
277 827 109 235 168 127
279 826 108 235 168 127
277 828 109 236 169 128
276 830 111 237 168 128
278 828 109 236 170 129
279 828 110 237 169 129
281 816 101 229 160 120
280 818 102 229 160 118
281 819 103 232 164 122
283 817 102 232 164 121
283 819 103 234 165 122
284 817 103 234 166 124
285 818 103 234 165 123
287 816 103 234 166 124
280 821 104 233 165 124
280 822 105 233 167 125
282 820 104 234 166 123
283 822 105 236 168 126
283 822 107 237 168 128
287 817 104 235 167 126
287 818 105 236 167 128
284 821 105 236 167 126
284 822 106 237 167 127
286 820 105 236 166 126
287 821 106 237 166 127
285 822 108 237 167 129
286 823 108 237 166 128
287 823 110 238 167 131
282 824 107 236 168 128
280 826 109 236 168 128
282 824 108 236 168 128
283 825 109 237 168 130
282 827 111 238 170 130
280 828 110 237 169 130
282 828 111 239 171 130
284 825 110 237 168 131
284 826 111 241 170 132
286 825 111 242 170 134
287 826 111 244 171 137
279 831 112 239 171 131
280 831 113 239 171 131
283 828 112 244 174 133
283 830 113 244 175 134
285 827 112 244 172 134
284 829 112 245 173 132
284 831 113 245 175 133
286 828 113 245 174 134
287 829 114 237 171 130
287 830 114 234 169 130
288 769 94 174 140 103
289 770 94 139 115 90
291 769 94 131 111 92
288 772 94 179 129 58
288 775 94 160 126 82
291 772 94 112 93 77
291 775 94 133 87 39
292 770 94 127 105 82
294 769 94 163 134 103
294 771 94 178 149 119
292 773 94 124 104 85
293 774 94 146 125 105
294 773 94 159 132 104
294 774 95 165 140 114
288 777 94 158 136 116
289 778 94 90 86 86
291 777 94 146 120 94
288 780 94 145 136 132
288 783 94 98 93 91
291 780 94 80 89 100
291 783 94 140 136 137
293 777 95 177 153 131
293 778 95 167 149 137
295 777 95 155 139 129
292 780 95 143 137 137
292 782 94 135 125 120
293 783 95 152 139 131
294 782 95 152 139 131
296 768 95 114 93 71
296 771 95 87 63 47
299 768 95 170 133 85
296 772 95 113 86 66
296 775 95 117 101 93
298 774 95 191 153 110
302 768 95 167 134 98
297 777 95 158 143 134
298 776 95 165 144 127
296 783 95 141 129 121
289 785 94 96 93 94
290 784 94 114 117 125
290 787 94 145 140 140
288 788 94 136 124 115
288 791 94 84 94 105
291 788 95 135 132 134
291 790 95 108 106 108
293 785 95 120 92 65
294 784 95 144 133 125
294 787 95 115 118 125
293 788 95 138 136 139
293 791 95 148 135 130
294 790 95 105 121 139
288 793 94 107 102 102
288 794 95 91 73 65
290 792 94 124 113 105
290 794 95 108 87 67
288 797 95 53 106 143
289 798 95 124 123 127
291 797 95 136 121 108
292 793 95 95 81 70
293 794 95 159 151 150
295 793 95 123 130 141
296 785 95 159 144 135
296 791 95 127 128 133
298 774 96 188 156 124
301 768 96 190 132 62
301 771 96 173 142 108
302 770 96 144 119 95
300 773 96 184 159 136
301 774 96 151 137 129
303 773 96 107 87 71
303 775 96 72 99 124
298 777 96 148 127 109
299 778 96 185 165 151
297 783 96 133 106 77
298 782 96 151 129 113
300 777 96 139 124 114
301 778 96 110 111 117
303 776 96 54 96 126
303 778 97 147 147 152
301 781 96 99 97 103
301 782 97 118 112 112
303 780 97 161 152 150
303 783 97 147 112 80
295 792 96 118 121 127
295 795 96 67 122 163
292 799 96 121 113 108
295 796 96 118 125 134
295 798 96 181 145 108
297 785 96 131 97 63
298 784 96 149 114 87
298 787 96 117 123 133
297 788 96 95 99 106
297 791 96 130 124 124
298 790 96 117 116 118
300 784 96 150 142 139
301 785 97 131 135 143
301 786 97 114 124 137
303 785 97 136 110 86
300 788 96 115 120 128
300 790 97 112 94 87
302 789 97 92 76 63
303 790 97 140 125 115
296 793 96 107 122 140
297 794 96 79 125 161
298 793 97 100 123 147
298 794 97 87 122 151
296 796 97 155 142 133
296 798 97 175 152 132
298 796 97 149 138 133
298 799 97 168 143 118
300 792 97 143 126 113
300 794 97 101 88 82
301 795 98 164 132 98
303 793 98 117 114 116
300 796 97 124 98 69
301 797 98 156 126 93
301 798 99 175 135 103
303 796 98 161 141 121
303 798 99 179 131 95
304 769 96 124 104 89
305 770 96 154 128 109
307 769 96 188 153 113
307 771 97 198 167 138
305 772 97 184 152 120
305 775 97 167 151 141
306 774 97 185 163 146
308 769 97 133 106 75
308 771 97 170 150 135
311 768 97 117 101 87
311 771 97 173 133 87
309 773 97 138 119 105
309 774 98 161 147 139
311 772 98 189 156 122
311 775 98 167 147 131
304 778 97 154 146 144
306 777 97 182 162 147
306 779 97 162 143 127
304 780 97 187 170 159
304 783 97 156 111 85
306 781 97 165 147 133
306 782 97 166 150 138
308 776 97 139 128 123
308 778 98 137 125 117
310 777 98 168 150 137
311 778 98 177 157 142
309 780 98 154 133 114
309 783 98 145 107 87
311 780 98 168 150 137
310 783 99 144 112 91
312 768 98 176 140 97
312 770 98 178 151 123
314 769 98 189 147 93
315 770 98 177 124 68
313 773 98 177 154 134
314 772 98 161 141 123
314 775 98 146 134 127
316 768 98 140 102 63
316 771 98 195 153 103
318 769 98 184 156 128
318 771 99 194 171 152
316 773 98 161 135 108
316 775 99 175 160 152
319 772 99 147 129 115
318 775 100 147 136 131
312 777 99 108 94 86
312 778 99 115 97 88
314 777 99 166 155 151
315 778 99 166 152 144
313 781 99 152 125 101
314 780 99 142 114 89
313 783 100 171 143 123
315 782 100 167 131 104
317 777 99 132 125 125
316 779 100 156 145 140
319 776 100 155 141 132
319 779 100 163 133 112
316 782 100 146 126 113
317 782 101 119 110 107
319 780 100 165 134 111
319 782 101 169 145 126
305 784 97 133 116 104
304 787 97 139 127 119
306 785 98 85 103 121
307 786 98 139 143 153
304 789 98 165 151 145
305 790 98 110 136 161
306 789 99 111 127 145
307 790 99 89 128 163
309 784 98 139 114 101
308 787 99 139 129 126
311 784 99 151 135 125
310 787 100 105 91 79
309 788 99 96 92 95
309 789 100 117 122 132
310 788 100 119 104 97
310 791 100 102 115 129
304 793 98 103 114 127
304 794 98 146 135 129
306 792 99 78 119 152
306 795 99 109 75 54
304 796 99 156 136 116
305 797 100 164 126 94
305 799 101 175 121 78
307 797 101 174 126 81
307 799 101 173 120 80
309 793 100 166 145 126
309 794 101 169 146 125
310 793 101 164 144 127
311 794 101 159 133 113
308 797 101 172 123 77
308 798 102 171 121 77
310 796 101 176 129 89
311 797 103 170 121 79
311 799 103 172 122 81
312 785 100 121 100 88
313 786 100 109 90 79
314 785 101 179 159 152
314 786 101 159 144 139
312 789 100 118 97 76
312 791 101 107 116 128
315 788 101 88 109 128
314 791 102 117 125 137
317 784 101 154 144 150
316 786 102 128 106 87
318 784 102 182 166 162
318 787 102 77 81 87
316 789 102 67 109 144
316 791 103 154 148 147
318 788 103 57 88 113
318 790 103 109 122 136
312 792 101 120 110 109
313 793 102 135 89 58
313 795 102 167 124 83
315 793 102 168 141 117
315 794 103 186 149 109
313 796 103 172 124 81
316 792 103 158 143 131
316 795 103 169 123 80
312 799 104 172 122 85
314 797 104 173 125 85
314 798 105 182 128 88
317 793 104 185 159 136
317 795 105 168 121 79
318 794 104 171 135 97
319 795 106 180 127 85
317 796 105 172 123 84
316 799 106 184 130 89
318 796 106 183 129 88
318 798 107 191 133 95
319 799 107 193 136 97
288 802 95 173 143 116
288 802 96 190 155 125
290 801 96 184 156 131
290 803 97 181 121 82
288 804 97 184 125 85
289 806 97 196 134 90
290 805 97 192 131 89
290 806 98 204 137 94
291 807 99 213 143 102
293 801 96 131 99 67
293 802 97 171 115 84
294 801 97 163 119 79
294 802 98 174 120 74
292 804 97 185 127 87
293 805 99 201 136 93
293 807 99 211 143 100
295 805 99 202 135 95
294 807 100 213 145 102
288 808 99 217 149 108
288 810 99 223 154 113
291 809 99 219 150 109
290 810 100 223 155 113
291 811 101 226 158 117
289 812 101 228 158 118
288 815 103 233 164 124
290 813 101 229 160 120
290 815 103 233 165 125
292 808 100 217 148 107
292 810 101 224 156 113
293 811 102 226 157 117
295 809 101 220 152 111
295 810 102 220 153 112
293 812 102 228 158 118
293 814 103 232 162 123
295 812 103 223 156 116
293 815 104 231 163 124
295 814 104 223 159 121
296 800 97 173 131 95
297 801 98 177 120 81
297 802 99 179 121 82
299 800 98 177 120 86
299 802 99 182 127 84
296 804 99 195 132 92
297 805 100 202 137 99
296 807 101 208 143 103
298 805 101 196 136 97
298 807 101 203 141 101
300 800 99 177 120 84
301 801 100 175 120 80
301 802 101 179 124 84
303 800 100 174 121 80
303 802 101 181 124 83
300 805 101 199 136 98
300 806 102 198 137 100
301 807 103 197 138 101
303 804 103 184 129 93
303 807 103 188 133 97
296 809 102 212 147 109
296 811 103 217 152 112
298 809 102 209 146 109
298 810 103 203 143 106
297 812 103 212 150 112
299 810 104 201 141 106
297 813 104 217 157 119
297 814 105 217 157 120
298 812 104 210 151 115
299 813 105 211 155 117
298 815 107 222 163 124
299 815 108 217 162 124
300 811 104 202 145 110
301 811 106 203 147 111
303 808 105 194 138 98
302 811 106 201 145 108
300 812 106 207 153 115
301 813 107 211 157 118
302 812 107 209 153 116
301 814 108 214 160 121
303 813 108 213 157 119
303 814 109 216 161 122
288 816 104 235 165 125
289 817 105 236 166 129
289 819 106 239 167 131
291 817 105 237 168 129
291 818 106 237 168 128
288 821 107 240 168 131
289 821 108 239 168 131
289 822 109 236 167 129
291 820 108 241 169 132
290 823 110 236 166 129
292 817 105 233 166 128
293 817 106 230 162 123
293 819 107 232 166 127
295 816 106 223 159 123
295 818 107 220 161 124
295 819 109 223 164 125
293 820 108 230 165 127
292 822 110 231 164 128
293 823 111 229 164 127
294 821 110 229 166 128
294 823 111 226 162 126
288 824 111 241 169 130
290 824 110 242 170 133
293 824 111 227 164 126
297 816 107 227 163 123
296 818 108 221 164 126
297 818 110 223 165 128
299 816 108 225 165 127
298 819 110 232 170 128
296 820 109 229 169 128
297 820 111 222 162 123
298 821 111 219 159 120
301 816 109 221 165 127
300 818 110 229 169 129
302 816 109 219 164 126
303 817 111 219 164 127
294 823 112 221 160 122
289 826 112 240 169 132
290 826 112 232 166 128
291 827 113 223 161 125
289 828 114 224 161 125
288 831 115 225 165 127
290 829 114 222 162 125
288 831 116 226 168 129
289 831 118 229 170 136
290 830 117 226 167 130
290 831 119 231 174 139
292 825 112 231 166 127
292 827 113 221 161 124
293 826 115 224 165 128
295 824 112 221 161 122
295 825 115 226 168 130
294 826 116 225 167 129
295 827 116 226 167 129
292 828 115 223 164 126
293 828 116 225 166 129
293 828 119 231 173 136
294 828 117 229 170 134
291 830 120 230 172 137
291 831 124 230 171 135
292 830 121 231 172 136
292 831 122 230 170 135
294 829 120 232 173 136
294 829 123 233 173 136
292 830 124 232 173 136
292 831 126 225 167 127
294 829 125 230 171 134
294 829 127 228 171 132
294 830 126 230 172 134
297 822 112 221 161 123
299 821 112 220 161 123
298 823 114 224 166 129
299 823 116 231 174 137
303 819 113 223 166 129
301 820 113 223 166 128
300 822 115 228 171 135
302 820 113 223 166 129
303 820 114 225 168 130
301 822 116 231 174 136
302 821 116 229 172 134
303 822 116 233 176 137
303 822 118 236 179 139
303 823 121 239 181 143
303 823 127 235 179 143
296 825 114 224 165 128
296 825 116 228 170 132
296 826 116 228 169 131
296 827 118 232 172 135
298 825 116 232 173 135
298 825 119 236 174 137
300 824 116 233 175 137
301 824 118 237 179 142
297 827 120 237 178 140
299 825 120 237 177 139
299 826 121 240 182 144
299 826 122 240 183 145
297 827 127 229 171 135
298 826 126 231 173 136
299 826 127 229 172 136
296 828 124 232 173 134
300 825 120 238 181 141
300 825 122 240 182 144
300 826 122 240 182 143
302 824 123 239 181 142
301 825 124 239 180 140
301 824 127 231 174 136
300 826 126 235 178 140
302 824 126 236 178 140
304 801 101 180 123 81
304 802 102 182 125 86
305 803 103 190 131 93
307 801 102 177 125 85
307 802 103 188 129 91
305 804 103 185 130 91
308 801 103 178 126 86
307 803 104 183 129 90
304 807 105 189 135 96
306 805 104 187 132 92
306 806 105 186 133 94
309 801 104 177 126 86
309 803 105 186 129 88
311 801 105 175 125 85
311 803 105 179 127 86
309 804 105 183 129 88
308 807 106 192 137 97
310 804 106 182 129 88
310 806 106 186 132 92
311 807 108 190 136 96
305 808 106 191 137 97
304 811 107 202 146 108
307 808 107 201 143 102
305 811 109 208 153 116
306 811 109 207 152 115
304 812 109 212 157 118
305 813 110 217 162 122
305 814 111 225 167 126
306 813 110 218 162 121
306 814 111 218 162 122
308 809 107 213 149 107
309 809 109 205 145 104
309 810 110 207 150 111
310 809 109 199 142 101
310 810 110 211 153 112
311 811 111 211 156 114
309 813 111 217 161 120
312 801 105 176 127 86
313 802 105 179 128 87
313 803 107 196 138 97
314 801 106 180 129 89
314 803 106 184 131 91
315 803 108 187 133 95
313 805 107 186 131 92
312 807 108 191 136 96
314 804 108 188 133 95
314 806 108 191 134 96
315 806 110 196 139 102
317 800 106 180 128 89
318 800 107 189 132 96
317 802 108 190 135 97
319 801 108 190 133 98
319 803 109 193 137 100
316 805 110 196 139 101
316 807 111 199 141 102
318 804 110 195 137 99
319 805 111 199 140 104
313 808 109 195 138 99
312 810 110 201 145 103
314 808 111 201 145 104
316 808 111 200 144 103
308 815 112 220 162 125
310 812 112 220 162 122
311 813 113 218 159 122
311 814 114 221 161 125
318 806 112 201 142 105
319 807 113 204 144 107
314 809 112 205 149 108
315 810 113 214 155 114
312 813 113 216 157 118
313 812 114 216 156 116
313 814 114 219 159 121
314 813 114 217 158 118
314 814 115 220 161 121
314 815 116 224 164 125
315 815 118 224 163 123
317 808 112 201 144 103
316 810 114 214 155 116
318 808 113 204 145 106
319 809 114 213 152 116
319 810 115 214 153 117
316 812 115 218 159 118
317 813 116 222 164 124
317 814 117 224 165 127
317 814 119 231 171 134
319 812 117 219 159 119
318 814 118 226 166 129
318 814 120 228 167 127
319 815 121 231 167 128
304 816 111 221 165 126
306 816 111 220 163 125
304 819 113 224 167 130
305 819 114 226 169 132
307 817 112 222 165 127
306 819 114 226 168 131
306 819 116 232 173 135
305 820 115 228 170 133
305 820 117 235 178 137
304 822 118 236 178 137
306 820 118 238 181 140
308 816 112 221 164 126
308 817 115 226 168 130
308 818 115 228 171 133
311 816 115 226 169 130
308 819 117 236 178 138
309 818 118 235 175 134
311 816 116 229 172 133
310 818 118 235 175 134
308 820 119 239 179 140
304 823 121 239 180 142
305 822 122 241 182 142
307 820 120 240 179 142
306 822 120 241 180 143
307 822 123 243 184 144
305 823 124 243 185 143
305 822 127 241 184 146
306 822 124 244 187 145
306 822 127 242 184 146
310 819 121 242 180 142
311 819 123 243 181 142
309 820 121 242 180 142
309 820 123 245 185 145
311 820 123 244 182 142
309 821 125 244 184 143
310 820 124 244 183 142
310 820 127 247 187 148
312 816 117 223 163 122
312 817 119 232 170 131
314 816 117 223 162 122
315 816 119 231 171 132
312 819 121 241 177 141
312 819 123 243 180 141
314 817 121 239 176 137
315 817 122 241 178 140
315 818 123 243 180 142
312 819 126 245 182 143
314 818 125 244 181 140
314 819 126 246 182 141
315 819 127 246 183 143
316 816 120 236 175 136
316 816 122 239 175 137
317 817 123 240 176 136
316 817 125 244 178 140
316 818 125 243 178 138
317 818 127 247 181 142
319 816 125 241 175 137
319 817 127 244 177 138
257 832 110 224 162 120
257 834 111 225 165 127
259 832 111 227 161 123
260 832 111 227 161 121
260 834 111 230 164 127
263 832 111 231 166 130
264 832 111 231 165 128
264 834 111 230 162 125
267 833 111 233 167 129
269 832 110 234 169 129
271 833 111 236 167 128
258 834 112 226 164 126
256 837 112 223 160 123
256 839 113 224 159 121
258 837 113 225 157 118
258 839 113 229 164 126
260 835 112 231 165 129
262 835 112 231 166 128
260 837 113 230 163 124
260 839 113 231 166 125
262 836 112 232 167 128
263 837 114 233 169 130
263 839 115 236 174 133
256 841 114 223 156 120
257 842 115 225 158 120
258 841 115 228 163 124
258 843 115 227 161 123
259 843 117 231 167 127
257 845 116 226 160 123
257 846 117 227 162 125
259 845 117 228 165 126
259 847 118 228 164 127
261 841 115 234 171 131
261 841 116 234 170 131
261 842 117 234 170 130
263 841 116 237 172 133
262 843 118 234 170 131
261 844 117 232 168 128
260 846 118 228 164 126
262 845 118 231 168 128
262 846 118 227 165 126
263 847 120 223 165 127
266 834 112 233 167 130
264 836 113 233 169 130
265 836 114 235 171 130
265 838 114 236 173 131
266 836 114 236 173 132
267 837 115 238 174 133
266 839 116 238 175 132
268 835 112 235 170 130
270 834 112 236 169 130
271 835 113 238 171 131
268 837 115 238 174 134
271 836 113 239 171 131
271 837 115 238 173 132
269 838 117 239 175 134
270 838 117 240 176 134
270 839 118 240 176 133
265 840 116 238 174 132
264 843 118 235 171 132
266 841 117 239 175 133
266 842 118 237 174 133
267 843 119 239 176 134
268 840 117 239 176 134
269 841 118 241 178 136
270 840 119 244 180 136
270 842 119 245 181 138
264 846 120 226 167 129
266 844 120 235 174 134
267 845 121 232 173 133
267 847 121 226 168 131
269 842 120 246 182 139
270 843 121 245 181 140
268 844 121 242 179 137
269 845 122 237 175 136
269 847 123 225 168 130
271 844 122 238 175 135
271 846 123 227 169 132
256 849 117 224 158 121
256 850 118 221 155 119
258 848 118 226 160 124
258 851 118 220 157 120
256 852 118 221 157 121
257 853 119 220 157 118
258 852 119 221 159 121
260 848 118 223 160 123
261 849 119 214 155 117
262 849 119 210 154 116
259 852 120 217 156 118
259 855 120 219 157 117
263 848 120 222 164 126
263 850 121 226 162 122
261 852 120 214 156 117
260 855 121 217 154 114
262 852 121 214 154 113
262 855 121 217 156 115
256 857 120 221 157 115
256 859 121 217 153 108
259 856 120 218 156 114
258 859 121 214 149 104
257 860 121 208 143 98
256 863 122 192 133 87
258 861 122 204 141 96
259 862 122 197 138 92
261 856 121 218 156 115
261 859 121 215 154 112
262 858 121 216 156 113
263 859 122 212 153 110
261 861 122 207 147 100
261 862 123 200 143 97
263 860 122 208 151 107
263 861 124 191 141 99
263 863 124 185 136 95
265 848 121 220 165 126
265 851 121 212 158 118
267 849 122 217 161 123
267 851 122 210 157 118
264 854 121 218 159 119
266 852 122 217 161 120
266 854 122 209 154 113
267 855 123 193 143 105
268 849 123 213 159 122
268 851 123 208 154 114
269 850 124 203 150 111
271 848 125 213 159 121
271 850 124 206 154 113
268 852 123 205 152 113
268 854 123 192 143 105
268 855 124 188 140 103
269 854 126 192 146 107
270 853 124 195 147 108
271 852 126 200 149 110
270 854 127 193 148 108
265 857 122 207 152 111
265 858 123 195 144 103
266 857 123 191 141 101
267 856 124 189 140 103
266 858 125 183 136 97
267 858 126 183 140 102
264 860 124 190 140 101
265 861 125 179 135 97
264 863 127 174 133 95
266 860 126 182 139 101
266 862 127 174 134 97
268 856 127 187 142 104
268 858 127 184 141 105
273 832 111 236 166 126
272 833 112 236 166 127
273 834 113 239 169 129
275 832 112 238 169 128
274 834 114 241 171 129
275 835 115 242 174 132
274 836 115 241 175 134
272 838 117 243 178 137
274 836 116 243 176 135
275 837 117 243 177 136
275 839 118 247 181 139
277 833 113 240 172 130
276 835 115 241 174 132
278 833 113 241 173 130
279 833 114 240 172 130
276 835 116 241 174 132
279 834 116 246 177 134
277 836 117 246 180 137
276 839 119 248 182 140
279 836 117 242 178 135
278 838 118 242 179 135
278 839 120 233 173 130
273 840 119 250 184 143
276 840 119 243 179 136
272 842 121 249 182 139
273 842 122 242 177 135
275 841 120 242 179 138
274 843 122 232 171 130
272 845 123 225 167 130
274 845 123 220 165 129
272 847 125 219 165 129
274 845 124 217 163 125
275 845 125 213 159 119
274 847 126 213 161 128
276 841 120 236 174 133
277 841 122 231 174 135
277 842 122 226 171 131
278 841 121 228 171 133
279 841 122 226 169 132
277 843 124 223 170 134
278 843 125 222 170 133
278 843 127 216 161 118
276 844 123 221 166 130
276 845 126 212 157 117
276 846 127 206 154 115
281 832 114 241 172 131
282 833 115 240 174 133
280 835 117 239 172 132
282 833 116 240 174 134
283 834 116 232 169 131
283 835 119 223 165 126
281 837 119 223 168 125
284 832 114 241 173 132
286 832 115 229 168 128
285 834 117 227 166 129
285 835 118 224 167 128
287 832 116 225 167 129
287 833 119 227 170 134
287 834 119 225 169 130
281 839 121 228 171 133
283 837 121 220 168 128
283 838 121 223 171 131
283 839 123 225 172 136
283 839 125 214 162 124
285 835 121 222 166 128
286 835 121 226 172 134
286 835 123 229 174 139
286 835 124 228 174 138
287 835 126 214 159 118
284 837 121 218 164 123
285 836 123 219 161 124
284 837 124 217 164 126
285 837 125 215 162 122
284 838 125 214 163 122
286 836 125 221 168 130
281 840 121 228 171 133
281 840 123 227 172 133
281 841 124 225 171 133
281 841 127 217 170 129
282 840 124 226 172 135
272 849 125 204 152 113
272 850 126 201 150 109
274 848 126 202 149 113
272 852 127 206 155 117
257 864 123 179 125 82
258 864 123 177 122 80
257 867 124 158 108 65
258 867 125 156 109 63
256 868 124 160 111 69
256 870 124 159 110 67
257 871 126 136 88 49
259 868 126 170 129 89
259 870 126 153 114 79
260 864 124 193 141 97
261 865 125 185 137 97
261 866 126 178 134 94
262 865 125 183 135 97
263 865 127 172 131 94
260 868 126 172 132 93
256 872 125 158 113 71
257 873 126 146 102 64
257 875 126 161 120 82
259 872 127 144 106 68
259 874 127 132 90 51
257 876 126 166 125 87
258 876 127 152 113 77
264 864 126 174 133 95
257 887 120 123 94 68
257 887 123 125 93 69
259 887 123 121 92 67
256 886 124 127 91 69
257 887 124 127 93 71
258 886 124 126 94 71
259 887 125 128 95 73
260 887 125 126 95 73
257 888 119 124 95 70
256 890 120 116 89 64
257 891 121 111 84 59
259 888 121 119 91 63
259 889 123 119 92 69
258 891 122 115 90 65
259 888 124 126 96 72
257 892 121 109 83 60
256 895 121 101 79 57
258 892 123 110 86 61
258 895 121 106 84 64
259 895 123 103 80 61
260 889 123 117 91 68
260 889 125 120 92 70
261 889 126 119 91 71
260 891 125 115 92 72
261 891 126 110 88 68
260 892 126 109 88 69
260 894 125 104 84 65
260 895 126 105 86 69
288 832 118 228 169 133
289 832 119 230 171 136
289 833 120 231 174 139
289 833 122 231 172 137
290 832 121 232 174 140
289 833 124 229 170 135
288 834 125 222 165 126
290 833 124 228 168 134
290 832 127 219 160 123
320 768 98 150 128 112
321 769 99 174 97 31
322 768 98 168 109 65
322 770 99 202 164 122
320 773 99 124 110 101
323 772 99 195 171 153
321 775 100 190 168 150
323 774 100 146 125 109
325 769 99 187 159 132
326 768 99 165 140 116
326 771 99 64 60 64
324 772 100 178 153 135
324 775 100 108 95 90
326 772 100 73 71 87
326 775 100 169 152 140
320 776 100 174 153 139
320 778 100 162 135 114
321 779 101 164 137 116
323 776 101 102 98 98
323 779 101 173 157 147
321 780 101 170 140 121
320 782 102 169 149 136
322 780 102 174 156 144
322 782 102 134 118 111
323 783 103 99 78 66
325 777 102 182 158 136
325 779 102 175 127 103
327 776 102 198 178 164
327 778 102 186 164 149
324 781 103 168 144 126
324 783 103 117 99 90
327 780 103 143 129 126
327 780 104 143 131 127
327 783 104 126 124 126
329 769 99 191 155 120
330 769 99 190 163 138
329 771 100 194 167 143
331 771 100 194 168 145
329 773 100 195 172 155
329 774 101 195 174 161
330 772 101 195 171 151
330 774 101 190 170 154
331 775 102 194 175 163
333 768 100 197 156 107
332 771 101 184 157 134
334 768 101 191 149 106
335 769 102 201 166 130
335 771 102 203 179 158
333 772 102 203 181 164
332 775 103 198 178 165
334 773 103 204 187 173
333 775 104 183 168 161
335 774 104 148 141 143
328 777 103 144 130 125
328 779 103 161 147 141
328 779 104 159 141 130
331 777 104 170 146 126
331 779 104 151 107 92
329 780 105 147 117 89
328 783 105 132 123 118
330 781 105 170 152 139
330 782 106 163 148 138
332 777 104 176 158 147
332 778 104 163 145 131
333 779 106 147 135 128
335 777 106 151 135 124
335 779 106 153 127 107
333 780 106 138 128 124
332 783 107 115 95 79
334 781 107 154 137 126
335 781 108 167 154 146
320 784 102 126 106 91
320 786 102 95 88 86
322 784 103 95 81 70
320 789 103 78 90 103
323 784 104 101 83 64
323 787 104 121 113 111
321 790 104 127 109 94
323 788 105 138 124 114
322 791 105 156 124 92
325 784 104 147 138 136
324 787 105 120 121 129
326 784 105 118 121 129
326 786 105 91 128 159
327 787 106 107 130 152
325 788 106 158 144 132
324 791 106 177 155 135
326 789 106 176 157 142
326 790 107 155 142 133
320 792 104 120 91 68
321 793 105 153 114 70
320 795 106 175 125 83
322 793 105 158 118 69
322 794 106 166 118 78
323 795 107 170 120 81
321 796 107 179 127 85
322 797 107 176 125 86
321 799 108 186 131 95
322 799 108 181 126 89
324 792 106 178 146 113
325 793 107 158 108 59
324 795 108 168 120 80
326 793 108 159 112 67
326 794 109 164 118 78
324 796 108 174 123 82
324 798 109 182 127 89
325 799 110 186 130 92
327 796 110 174 123 80
326 799 111 188 131 92
328 785 106 106 133 159
328 787 106 99 128 154
330 784 106 111 107 109
331 785 107 146 149 158
331 786 108 145 147 154
328 790 107 115 115 119
329 790 108 124 121 123
330 789 108 130 110 93
330 790 109 167 144 124
331 791 110 156 117 72
333 784 108 125 106 90
332 787 109 179 148 115
334 784 108 128 108 94
335 785 109 146 130 119
335 786 110 188 157 121
333 788 109 190 157 120
332 790 110 198 162 124
333 791 111 153 107 59
334 790 111 197 169 147
329 793 109 158 114 68
328 795 110 169 123 82
330 792 110 152 108 73
331 793 111 159 112 73
328 796 111 175 125 84
332 792 111 153 110 73
335 789 112 182 162 147
335 790 113 152 113 79
331 795 112 168 122 81
329 798 112 184 129 90
330 797 113 179 126 86
330 798 113 183 129 90
331 799 114 191 135 98
333 793 113 159 114 74
333 794 113 165 120 80
334 793 113 159 113 76
334 794 114 165 118 80
335 795 115 169 120 81
333 796 115 174 123 83
332 799 115 191 137 98
335 796 115 173 122 83
335 797 116 179 126 86
335 798 117 184 130 89
336 769 102 204 175 148
336 770 102 201 175 151
338 769 103 172 148 129
337 770 104 138 131 130
338 770 104 135 127 123
339 771 105 161 154 152
337 773 105 163 154 152
337 775 105 163 156 155
338 773 105 172 163 162
338 774 106 177 165 159
339 775 106 173 163 158
341 768 104 213 175 134
341 770 105 192 169 149
342 769 105 206 182 160
342 770 106 183 162 147
343 771 107 130 123 123
341 772 107 130 125 125
341 775 107 165 156 154
341 775 108 168 159 157
342 775 108 170 160 156
336 776 106 149 133 121
337 777 107 148 131 118
337 779 107 152 121 96
338 778 107 148 130 117
339 778 108 152 132 117
336 781 108 166 155 150
336 782 109 173 161 156
337 783 110 140 144 154
339 781 109 155 160 171
339 782 110 144 145 152
340 777 108 155 145 141
340 778 109 149 125 108
342 776 108 163 152 147
343 777 110 151 138 131
343 778 110 169 151 137
340 781 110 159 158 164
340 782 110 153 152 159
342 780 110 165 142 123
344 768 105 192 164 138
345 769 106 170 141 113
345 771 107 151 140 132
345 770 108 177 155 135
346 770 108 183 159 136
347 771 108 164 141 123
345 772 109 163 151 145
344 775 109 161 150 145
346 773 109 142 133 127
346 774 109 153 145 144
347 775 111 125 111 100
349 768 109 160 133 104
349 771 109 144 97 71
350 769 109 134 108 84
350 770 110 145 101 73
351 771 111 187 145 99
349 773 110 102 85 72
349 774 111 141 124 110
350 774 111 157 138 123
345 777 110 113 99 90
345 778 111 153 138 127
347 776 111 162 150 145
341 783 112 130 136 147
342 783 113 150 150 155
350 773 112 174 151 131
350 775 113 194 178 168
345 779 112 162 140 125
346 779 112 161 139 123
344 781 112 175 159 151
344 782 113 135 119 106
345 783 114 137 120 106
347 780 113 172 141 117
346 783 114 126 104 84
347 783 116 162 155 155
349 776 113 188 177 174
348 779 114 167 140 120
350 776 113 189 179 176
351 777 114 148 144 149
351 778 115 103 91 88
348 781 115 192 171 156
350 780 115 171 153 141
349 782 116 175 165 163
351 780 116 165 151 143
350 783 117 136 146 161
336 784 109 140 134 135
337 785 111 114 120 131
337 787 111 165 139 113
336 787 112 159 125 93
339 785 112 126 128 136
339 786 113 141 120 106
336 789 113 136 112 91
336 790 113 147 113 80
337 791 114 155 109 76
339 788 114 202 162 122
338 791 115 157 110 77
340 784 112 131 146 164
341 785 113 167 146 129
341 786 114 188 159 130
343 784 113 182 170 163
342 786 114 209 174 138
342 787 116 219 197 179
341 788 115 223 191 162
340 791 116 160 111 76
341 791 118 167 115 74
343 788 117 197 172 152
342 790 118 167 111 82
343 791 119 172 120 83
337 793 115 160 113 73
337 793 116 161 113 75
338 792 116 162 112 76
339 793 117 164 113 74
338 795 118 171 117 81
336 797 117 181 127 89
