ply
format ascii 1.0
comment Version 2, Copyright 2017, 8i Labs, Inc.
comment frame_to_world_scale 0.179523
comment frame_to_world_translation -45.2095 7.18301 -54.3561
comment width 1023
element vertex 2151
property float x
property float y
property float z
property uchar red
property uchar green
property uchar blue
end_header
212 420 84 66 99 125
212 420 86 76 102 125
209 417 91 32 69 105
209 418 90 54 81 116
210 416 91 39 72 107
210 419 88 76 102 123
208 416 92 39 70 102
209 420 88 39 88 117
210 420 88 76 105 128
213 417 88 2 53 131
209 425 82 78 108 140
209 426 82 91 115 142
210 425 82 70 97 137
210 427 82 92 121 159
208 425 84 42 84 126
209 429 82 147 158 174
209 431 82 103 116 161
211 429 82 83 112 173
211 431 82 162 164 186
213 425 81 90 109 149
213 426 81 72 88 147
215 424 80 62 92 150
214 427 81 109 129 171
212 429 82 91 117 174
213 430 82 126 144 177
215 428 82 93 124 165
215 430 82 135 144 187
216 417 82 84 112 135
216 418 81 95 115 136
216 418 82 87 112 135
219 416 80 97 111 128
218 418 80 114 122 135
216 416 84 43 84 121
217 420 81 48 84 118
217 423 80 74 103 158
218 422 80 116 136 164
220 417 80 96 110 126
221 422 80 124 136 165
216 425 80 142 142 175
216 426 81 180 175 188
218 425 80 171 170 182
218 426 81 188 180 183
217 428 81 181 180 186
216 430 83 116 127 179
218 428 81 189 185 189
218 431 83 74 96 167
221 424 80 161 160 183
221 427 81 185 185 193
222 426 80 190 187 195
223 427 81 74 102 155
221 429 82 119 138 177
221 431 82 95 113 162
222 429 82 100 118 172
223 430 82 151 156 175
209 433 83 168 173 184
210 433 83 179 177 182
209 434 84 149 157 182
211 435 84 165 171 183
209 437 84 131 147 181
209 438 85 119 139 175
211 436 85 97 130 161
211 439 85 118 135 163
213 433 83 183 177 182
215 432 83 121 143 174
212 435 84 174 177 187
215 434 84 151 162 185
213 436 85 44 74 127
213 439 85 93 119 157
215 436 84 54 86 148
215 438 85 142 146 161
209 441 85 116 131 157
208 442 86 44 84 124
210 441 86 106 124 152
211 442 86 117 128 152
209 445 86 131 137 150
210 444 86 140 143 152
210 447 86 97 112 130
212 441 86 101 119 145
213 442 86 119 130 152
215 441 85 90 118 148
214 443 86 113 126 145
213 444 86 132 135 145
213 447 86 96 112 131
214 446 86 109 117 131
216 433 83 105 132 178
218 432 83 92 117 175
219 434 83 100 127 171
218 434 84 89 121 170
216 437 84 132 142 165
216 439 85 176 173 178
219 436 84 117 138 168
219 438 85 176 171 174
221 433 83 121 139 173
222 433 83 167 168 183
223 434 83 162 163 177
222 435 84 107 126 167
221 437 84 133 148 170
221 439 85 164 166 175
222 438 84 140 151 169
223 439 85 102 124 155
216 441 86 101 122 156
217 443 86 90 113 141
218 442 85 136 148 170
219 443 86 70 100 132
216 446 86 89 105 126
218 445 86 99 117 140
219 446 86 96 112 133
221 441 85 140 145 160
221 443 86 154 154 162
222 442 85 164 162 168
220 444 86 130 142 158
220 447 86 96 113 134
222 445 86 111 122 137
223 447 86 93 114 138
193 416 102 66 98 126
194 416 103 83 108 133
192 419 104 56 94 126
193 419 106 62 100 129
195 416 104 91 112 134
195 417 107 55 90 119
195 418 106 40 85 116
195 419 109 50 90 118
192 421 104 66 101 129
193 420 107 61 99 128
192 422 107 46 89 119
193 421 108 59 96 125
193 423 109 46 85 113
194 420 109 70 100 126
194 421 110 62 95 121
194 422 109 53 90 117
196 416 107 82 104 128
196 417 109 63 92 117
197 416 111 97 113 130
196 418 110 39 83 113
198 416 111 121 130 143
192 425 109 31 74 104
193 424 110 39 79 107
195 420 112 62 92 118
195 421 115 112 121 134
194 422 114 93 109 127
195 422 115 105 115 130
195 422 116 84 100 117
195 422 118 42 75 98
196 418 112 47 86 114
197 418 113 77 100 122
197 419 115 121 128 140
199 416 113 82 102 122
199 416 115 80 100 120
197 419 117 95 109 125
198 417 116 78 99 119
198 417 118 54 84 110
199 417 119 39 78 107
196 420 112 61 91 115
196 420 116 116 125 138
196 420 118 50 79 101
197 420 119 67 89 109
193 422 123 53 73 90
195 421 122 85 98 111
194 423 121 62 81 98
194 423 122 56 76 94
192 423 125 55 75 91
192 422 127 61 80 96
194 421 124 66 81 96
195 421 125 69 82 96
195 420 126 65 80 94
197 418 121 50 79 100
197 418 123 74 90 106
199 416 120 47 81 107
198 417 123 61 82 101
198 418 120 49 79 104
197 417 126 62 79 94
197 418 125 62 79 95
197 418 126 62 78 94
199 416 124 56 77 96
198 417 126 64 79 95
196 420 121 78 93 109
196 420 124 73 87 102
192 425 114 77 99 120
192 425 116 99 111 126
193 425 117 85 101 118
193 425 118 80 98 115
192 424 121 48 73 93
192 424 122 55 76 93
192 426 120 58 80 98
233 384 79 73 105 173
234 384 79 43 83 159
234 386 78 54 92 156
232 388 79 98 128 166
232 391 79 106 129 167
234 389 79 80 112 156
235 390 78 140 148 171
237 385 77 71 104 157
237 386 77 81 108 155
238 385 76 73 102 146
238 386 77 87 108 151
236 388 77 67 100 148
236 389 78 92 116 155
237 391 77 130 144 166
238 389 76 85 114 153
238 390 77 93 124 160
232 392 79 113 130 165
235 392 78 146 151 173
234 395 79 65 109 148
235 397 79 81 98 139
236 392 78 67 96 149
236 395 78 93 116 164
238 392 77 129 146 174
238 395 77 81 104 152
236 396 79 79 100 154
236 398 79 86 104 142
237 399 79 79 105 129
239 396 78 64 91 150
239 398 78 82 104 143
225 384 80 76 124 192
225 386 82 64 95 173
227 385 81 72 105 178
226 387 82 118 132 174
224 390 82 87 126 175
225 391 83 103 133 178
227 388 82 170 175 193
227 391 82 156 161 176
228 386 81 68 101 168
230 384 81 72 112 180
230 387 80 70 107 173
231 387 81 59 99 173
228 390 81 123 137 171
228 391 82 99 123 165
230 390 80 76 111 167
231 391 80 57 98 157
224 394 83 102 127 163
226 393 83 130 146 176
226 395 83 111 130 160
224 393 84 123 142 175
225 397 83 93 115 141
227 396 83 101 117 142
227 398 83 105 120 141
225 397 84 91 115 144
229 392 81 162 164 174
229 394 81 150 153 168
230 392 81 77 109 158
230 394 81 77 109 148
230 395 82 114 128 151
228 398 82 109 125 146
231 396 81 72 102 136
231 397 82 80 102 137
231 398 82 74 98 129
233 385 80 86 105 168
232 389 80 111 140 180
232 394 81 115 128 152
234 394 80 91 123 163
233 396 81 83 106 142
233 398 80 96 112 139
234 397 80 80 97 137
235 399 80 92 115 140
231 407 79 43 82 110
227 411 79 63 90 114
224 415 78 145 143 148
226 412 79 77 96 123
227 413 78 124 125 131
228 408 79 52 79 117
228 411 78 84 104 123
230 408 79 41 76 109
231 409 78 75 100 123
231 410 78 58 90 117
229 412 78 113 120 133
228 414 78 137 135 139
231 412 77 99 107 126
230 415 77 163 158 160
235 400 79 81 105 136
232 405 79 74 96 116
233 406 79 74 98 121
235 404 79 66 91 113
234 407 78 46 82 110
237 400 79 80 102 127
237 403 78 103 113 127
238 401 79 122 132 146
238 403 78 94 107 121
236 405 79 63 91 114
237 406 77 58 92 118
238 404 77 72 94 113
238 405 78 88 106 124
239 406 77 40 80 111
232 409 78 81 105 128
233 410 77 63 92 115
234 409 77 77 100 122
235 408 78 46 82 110
235 410 76 72 95 118
232 413 77 129 129 136
232 414 77 130 131 138
233 415 77 168 165 169
235 413 76 144 142 146
237 411 75 102 111 126
239 411 75 121 124 132
237 408 77 59 89 119
237 411 76 89 105 125
238 410 76 85 104 123
238 412 75 138 137 145
238 415 75 170 167 173
237 412 76 121 124 136
226 400 83 97 115 135
226 403 83 107 120 137
224 400 85 63 92 126
224 403 84 98 112 131
225 404 83 93 112 131
224 407 83 69 99 125
226 404 83 102 117 134
226 407 81 39 77 113
226 407 82 59 94 119
228 401 83 87 106 126
228 402 83 91 108 126
229 403 82 97 110 126
231 401 82 103 121 140
231 402 82 101 119 138
228 404 82 98 113 132
228 407 80 41 75 111
230 405 80 76 102 125
230 404 82 81 100 119
225 408 81 27 65 115
225 408 82 25 64 118
225 410 81 75 101 129
227 408 80 29 69 114
224 412 80 37 76 112
232 401 81 78 101 121
232 402 81 81 100 120
233 403 81 89 106 124
234 403 80 57 87 110
233 404 80 79 98 117
241 384 74 56 95 135
240 387 75 85 113 147
243 384 74 23 68 125
243 387 74 29 72 138
241 388 75 65 100 143
242 388 74 27 69 141
243 389 74 23 67 144
243 390 74 30 70 149
240 391 76 117 135 162
244 384 74 58 90 130
245 387 73 93 116 140
246 385 72 128 139 159
246 387 72 116 131 154
244 388 73 107 126 158
244 389 74 36 82 156
244 391 74 36 80 154
247 389 73 107 128 159
247 391 73 79 106 144
242 393 75 79 99 160
242 394 75 69 93 153
241 393 76 99 119 153
241 395 76 96 122 165
243 395 76 74 97 155
241 396 77 97 128 162
241 398 77 115 134 157
243 396 76 67 96 149
243 399 76 64 97 134
244 393 75 26 74 150
245 394 74 58 93 145
247 392 73 61 91 139
246 395 74 75 101 161
244 396 75 75 92 153
245 399 75 29 80 126
247 397 74 86 109 148
247 399 74 111 129 148
245 399 76 30 79 128
250 384 71 98 119 143
250 387 71 103 126 155
251 389 71 74 109 145
252 386 71 93 118 149
254 384 71 54 94 139
255 385 71 47 86 135
252 388 71 72 105 140
253 390 71 51 91 136
254 390 71 41 86 134
248 385 72 107 126 153
249 386 72 98 116 140
249 388 72 99 120 145
249 390 72 98 123 153
250 390 72 71 105 139
252 391 72 61 97 136
255 392 71 61 95 136
255 395 71 68 99 137
249 392 73 63 103 141
249 394 73 58 91 140
250 392 73 79 109 144
250 394 73 61 91 134
248 396 74 60 80 147
248 399 74 108 122 138
251 396 73 96 112 145
250 399 73 101 116 130
252 392 72 49 89 130
252 394 73 40 77 128
254 393 72 45 88 128
252 397 73 94 112 144
252 399 73 112 129 153
255 396 72 71 100 139
254 399 73 90 111 141
240 401 77 121 130 144
240 402 77 69 94 116
240 402 78 68 92 113
243 401 76 38 80 119
243 403 76 17 73 111
242 404 75 36 74 108
242 406 74 29 68 105
243 407 74 57 81 110
241 404 76 27 76 112
242 404 76 29 73 108
244 402 75 19 55 105
245 403 74 33 68 102
247 400 75 86 108 128
246 403 74 44 83 110
245 400 76 34 78 124
244 404 75 18 63 108
244 407 74 68 88 112
247 404 73 40 78 105
247 406 73 45 80 108
240 409 75 96 111 128
240 411 75 115 121 132
242 408 75 63 87 115
242 411 74 89 107 129
240 413 75 161 157 159
240 415 75 143 152 167
242 413 74 111 126 150
242 414 74 112 131 159
245 409 73 98 107 122
245 411 73 135 133 137
246 409 73 87 101 123
247 410 73 112 112 119
245 412 74 155 154 159
245 415 73 135 148 165
247 412 73 161 153 154
246 415 73 120 135 158
248 400 74 106 118 133
248 403 73 28 69 107
251 401 73 114 123 137
251 402 72 118 129 144
248 405 73 43 75 105
248 407 73 51 80 110
250 405 72 33 74 106
250 406 73 32 74 107
252 401 73 120 133 151
252 403 72 98 115 133
254 400 73 88 112 142
254 402 72 69 98 140
252 405 72 75 100 123
252 406 73 48 81 107
254 404 72 65 97 140
254 407 72 32 74 106
255 408 71 42 75 106
252 412 71 128 134 146
255 412 71 150 144 144
248 409 73 93 98 117
248 411 73 141 136 138
250 409 72 115 119 126
250 410 72 122 123 130
248 412 73 162 154 152
249 413 73 167 161 163
249 415 72 175 168 169
251 413 72 114 125 146
251 415 72 131 136 157
253 409 72 101 109 122
254 408 72 53 82 106
252 413 72 99 118 149
253 414 72 161 160 167
255 414 72 167 159 157
225 417 78 154 150 154
227 416 77 154 150 154
227 417 78 168 159 159
227 418 78 171 165 167
224 421 79 139 149 174
224 423 79 135 139 174
226 421 79 111 129 169
226 423 79 135 143 179
229 416 77 169 163 164
229 418 77 182 175 177
231 416 77 176 170 171
231 419 77 179 175 179
228 421 78 124 141 177
228 423 79 115 127 174
230 421 77 116 137 175
231 422 77 124 139 178
226 424 79 118 140 175
228 425 79 124 136 177
229 426 79 187 180 186
230 426 79 190 182 184
233 416 76 160 159 168
233 418 77 162 162 172
235 417 76 153 157 178
235 419 76 161 164 180
233 421 76 165 170 187
233 423 77 96 117 166
235 421 76 138 150 174
235 423 76 158 167 187
239 416 75 124 141 168
239 418 75 115 128 174
237 417 76 178 175 181
238 417 76 145 149 174
237 421 75 119 130 176
239 420 75 126 138 172
239 423 75 109 120 173
237 422 76 105 121 175
232 424 78 168 168 184
232 426 79 188 183 189
234 424 77 115 132 174
234 425 78 153 163 185
235 426 78 76 106 163
234 428 79 107 124 170
235 431 79 146 153 169
237 425 77 73 117 163
236 427 78 75 105 159
239 424 76 116 134 172
239 426 77 112 136 181
236 429 79 179 180 190
237 430 78 128 135 161
238 428 78 103 125 170
238 431 78 192 188 192
224 423 80 137 141 173
224 425 80 113 137 176
224 427 81 83 105 173
227 424 80 119 140 178
227 427 80 134 146 178
225 429 81 144 153 177
226 428 80 84 110 174
226 430 81 178 176 180
228 427 80 176 175 186
228 429 80 135 145 178
228 431 81 164 166 180
230 428 80 186 182 186
230 431 80 132 146 170
232 428 80 175 179 190
232 431 81 143 153 182
234 431 80 183 182 189
238 433 79 168 170 184
224 433 83 181 176 179
224 435 83 166 171 183
226 433 83 181 174 175
226 435 83 118 131 152
225 436 83 92 115 142
224 436 84 108 128 164
224 439 84 122 138 168
226 437 84 125 138 164
227 439 84 109 127 165
228 433 82 124 138 169
229 434 82 120 132 165
231 432 81 101 129 174
231 434 82 118 143 175
229 437 83 169 170 179
230 436 83 156 160 176
230 438 83 131 138 163
228 439 84 110 124 158
224 441 85 123 139 159
224 443 85 119 133 155
226 441 85 113 130 161
226 443 85 128 139 156
225 445 85 123 134 151
225 446 86 98 116 141
227 445 85 120 131 148
227 446 86 101 118 142
229 441 84 118 137 167
229 443 85 108 127 159
230 442 84 114 129 162
231 443 85 135 148 172
228 445 86 101 118 142
229 447 86 98 117 150
230 446 85 113 125 148
230 447 86 94 114 146
233 432 81 149 162 182
232 435 82 76 107 162
235 432 80 131 141 167
235 434 81 127 143 174
232 437 83 173 170 179
232 439 83 169 169 176
234 437 82 160 165 177
234 439 83 140 143 163
237 432 80 180 176 180
237 434 80 130 145 168
238 435 80 122 133 166
236 437 81 128 141 178
236 438 82 125 139 168
238 436 81 141 151 180
238 438 82 107 129 168
234 440 83 163 161 171
232 441 84 82 97 142
232 443 85 137 147 170
235 441 84 178 171 173
232 444 85 105 127 163
232 447 85 98 117 143
234 444 85 123 142 167
234 447 85 104 119 151
236 440 83 184 180 184
238 440 82 136 146 182
239 441 83 128 141 176
236 443 84 126 142 169
239 443 84 153 164 189
237 445 84 109 131 162
237 447 85 93 110 153
238 445 85 118 135 161
239 446 85 95 117 154
240 417 75 94 119 169
240 419 75 112 128 168
242 417 74 105 131 174
242 419 74 109 134 178
240 420 75 122 133 171
240 423 75 130 142 179
243 420 75 119 130 174
243 423 75 151 159 186
244 416 73 101 129 161
244 417 74 77 115 171
245 418 74 103 121 175
247 416 73 93 113 163
247 418 73 116 131 169
247 419 74 114 122 175
245 421 75 115 128 172
246 421 75 127 139 175
246 422 75 135 145 178
244 422 76 102 116 169
240 425 76 111 133 182
241 426 77 96 119 182
243 424 76 144 152 175
243 426 76 151 164 184
241 428 77 109 143 187
240 431 78 140 155 183
243 428 77 110 124 176
243 431 77 133 149 183
244 424 75 135 147 183
244 424 76 148 157 186
244 426 77 148 160 181
246 425 76 88 115 172
247 426 76 84 108 171
245 429 77 126 139 180
244 431 78 142 156 190
247 428 77 176 177 188
247 430 77 145 154 180
249 417 73 149 157 178
249 418 74 123 143 170
251 417 73 148 157 173
250 419 74 110 134 168
248 420 75 134 141 188
248 422 74 156 165 186
249 423 74 111 133 175
251 421 73 107 124 163
250 423 75 110 130 177
252 416 73 147 157 177
252 418 73 108 122 167
254 416 72 125 143 168
254 418 73 83 113 168
252 420 73 68 81 150
253 421 74 145 153 171
253 423 74 138 149 178
255 421 73 120 136 171
255 422 74 174 176 190
249 425 75 88 108 168
251 426 75 185 187 195
249 426 76 98 119 169
251 426 76 173 179 190
249 428 76 159 163 192
249 430 76 150 162 183
251 428 76 89 113 175
251 430 76 126 136 182
252 425 75 171 177 192
254 424 74 134 151 181
254 426 75 112 132 189
253 426 76 112 132 177
252 429 76 103 116 178
253 430 76 112 117 180
255 428 76 109 126 165
255 430 76 152 161 185
240 432 79 114 135 171
240 434 79 171 164 183
242 433 79 174 172 185
243 434 79 185 183 190
245 432 78 132 147 187
245 435 79 133 142 175
247 432 78 101 129 181
247 435 79 109 119 175
248 432 78 111 132 182
248 434 79 90 121 179
250 432 77 139 150 189
251 433 78 113 128 181
251 434 79 125 139 178
251 436 79 118 139 183
252 433 78 170 174 196
253 435 79 142 152 176
255 433 78 192 184 187
255 435 78 164 171 186
254 436 79 139 150 179
255 438 79 116 127 170
242 434 80 190 182 185
241 436 80 185 179 181
240 438 82 121 140 168
242 437 81 134 144 168
242 439 81 152 159 185
244 436 80 150 151 172
245 437 81 118 135 164
246 436 80 111 128 173
246 439 81 162 161 186
240 441 83 109 129 172
240 443 83 113 132 164
242 441 83 99 122 172
243 442 82 109 129 167
243 444 83 110 121 158
241 445 84 114 126 157
241 446 85 89 109 146
242 446 84 94 111 152
244 440 81 74 99 145
245 441 82 176 172 180
245 442 83 147 156 175
246 441 82 190 181 180
247 442 82 179 176 183
245 444 83 116 127 172
247 445 83 119 127 162
245 446 84 91 111 151
247 446 84 92 110 152
248 438 80 181 178 190
249 439 81 189 181 179
250 439 81 181 179 186
252 438 80 92 113 165
254 439 80 116 125 165
249 441 81 180 175 185
248 443 82 129 144 168
250 441 81 151 155 176
250 442 82 111 126 165
248 445 83 125 130 164
249 446 83 92 108 152
251 445 83 122 133 166
248 446 84 97 114 157
251 447 84 130 130 158
253 440 81 136 139 177
252 443 82 126 137 166
255 440 80 133 143 180
255 442 81 140 151 176
252 445 82 121 134 165
253 446 83 126 131 160
255 445 82 127 136 165
255 446 83 134 134 161
193 487 63 70 93 115
193 488 62 58 87 112
192 491 61 64 90 111
194 488 63 59 87 111
194 490 61 67 91 112
195 490 62 65 91 113
192 494 58 77 95 113
193 495 59 80 96 113
195 495 59 84 99 115
194 492 61 74 93 112
194 494 60 70 91 110
196 491 61 83 101 119
197 490 63 68 95 118
198 491 62 109 116 126
197 495 59 101 111 123
197 493 61 101 112 124
197 495 60 100 111 124
199 492 62 119 123 131
198 495 60 112 119 128
200 491 63 113 119 128
201 493 62 118 122 128
201 495 61 111 116 123
202 493 63 113 118 126
202 494 62 109 115 123
204 493 63 119 121 126
204 495 62 120 123 128
206 494 63 122 124 128
192 499 55 88 102 118
193 501 55 88 102 117
193 503 54 86 100 115
194 502 55 85 100 116
196 501 55 98 107 119
198 502 55 123 124 129
193 496 57 86 100 116
192 498 57 90 104 119
194 497 57 87 100 114
195 496 59 90 103 118
195 498 57 93 103 116
195 500 56 93 104 117
197 496 59 99 109 121
197 499 57 104 112 123
199 496 59 117 120 128
199 499 57 125 126 131
199 496 60 114 119 127
197 501 56 102 111 122
199 501 56 121 123 128
199 503 56 122 125 132
193 504 54 88 101 116
193 507 52 92 103 117
194 505 54 86 101 117
194 507 53 90 103 117
192 510 50 95 107 122
194 509 51 92 105 119
195 510 51 94 106 119
193 509 52 92 103 118
196 504 54 100 109 121
196 506 53 99 108 119
198 505 54 104 112 123
198 506 53 107 113 123
199 507 54 118 122 130
198 511 51 122 125 132
197 509 52 110 116 126
199 508 53 127 127 132
199 510 52 135 133 134
200 498 58 130 131 134
202 497 59 129 128 131
203 499 58 130 129 131
202 496 60 119 121 127
203 497 60 126 126 129
201 500 58 131 129 131
201 503 56 106 114 124
203 501 58 107 115 125
203 503 56 89 100 114
206 499 59 105 113 124
205 497 61 105 111 120
206 497 61 96 105 114
206 498 60 96 108 121
207 499 60 97 108 120
205 501 58 109 115 123
204 502 58 106 112 121
206 501 59 123 124 128
206 502 58 130 129 133
200 504 55 112 117 125
200 507 53 117 121 128
201 507 54 124 125 131
202 507 55 129 128 130
200 509 53 129 128 132
200 511 52 135 133 135
202 509 53 113 118 126
202 510 53 109 116 126
204 506 55 127 128 132
204 508 54 129 129 133
205 509 54 116 121 130
204 510 54 85 102 119
207 508 55 101 111 123
206 510 54 93 104 116
202 505 56 123 125 130
204 505 56 107 115 124
206 504 57 105 113 124
206 506 56 87 101 116
208 495 63 118 121 127
208 496 62 109 116 125
209 497 62 94 105 117
209 498 61 73 85 104
210 497 62 96 106 118
210 498 61 82 92 109
208 500 59 124 125 129
208 503 58 131 130 131
210 502 59 132 130 132
211 503 59 130 129 131
210 501 60 121 122 128
212 496 63 95 107 120
212 499 61 99 110 122
213 498 63 84 95 107
214 498 63 82 94 107
212 502 59 118 122 128
212 500 61 90 104 118
213 501 61 81 97 112
214 501 61 76 93 109
214 503 60 87 99 112
208 509 55 115 120 129
208 510 54 124 125 130
210 509 55 121 122 127
211 510 54 131 131 134
212 511 55 112 116 124
215 511 55 86 99 114
209 504 58 131 130 132
209 506 56 91 106 121
210 505 58 112 118 127
210 507 57 77 94 112
209 508 56 82 99 116
212 504 59 97 106 117
212 506 57 78 96 114
214 504 59 86 99 112
215 505 59 80 94 110
215 506 58 80 95 110
213 508 56 86 99 114
214 508 57 85 97 111
215 509 57 81 96 111
217 497 63 81 96 112
217 499 62 83 97 112
219 499 62 88 102 116
217 501 61 79 95 111
217 502 61 79 95 112
219 500 62 91 103 115
219 502 61 88 101 115
221 499 63 122 123 127
220 501 62 95 105 117
220 503 60 91 103 118
221 502 62 96 105 117
223 501 63 125 125 129
223 502 62 97 107 118
217 505 59 85 97 112
217 506 58 86 99 113
219 505 59 83 98 114
218 507 58 87 99 114
217 504 60 80 95 112
216 509 57 80 95 111
216 511 56 85 98 113
219 508 57 90 102 116
219 510 57 98 107 119
220 507 58 92 103 116
222 507 58 116 119 125
220 505 60 72 92 111
222 505 60 78 95 112
223 506 60 76 93 109
220 508 58 109 114 122
221 510 56 104 111 121
222 509 58 128 128 130
222 511 57 110 114 122
224 501 63 122 123 127
225 503 61 94 105 118
226 501 63 103 110 121
227 502 63 105 110 119
228 503 63 120 120 125
231 503 63 111 114 119
224 505 60 82 96 112
225 506 60 86 98 113
226 504 62 104 110 119
227 506 61 96 103 114
224 509 58 130 129 131
224 511 57 120 122 128
226 508 59 101 108 117
226 511 57 106 113 123
227 510 59 110 116 125
228 505 62 113 116 122
228 507 60 95 105 118
229 506 62 108 115 124
231 505 62 112 115 121
231 507 61 84 99 115
229 509 59 93 104 117
229 511 58 96 107 120
231 510 59 89 104 120
230 509 60 92 103 117
232 504 63 105 110 119
232 506 63 105 112 122
234 506 63 90 103 118
232 511 59 93 104 117
233 508 61 89 102 117
232 511 60 90 102 116
235 509 61 99 109 121
234 511 60 89 101 115
236 507 62 111 116 125
239 507 63 99 111 125
237 508 63 112 117 125
237 511 60 83 99 116
239 508 62 110 117 128
238 511 61 98 108 121
240 509 62 106 113 123
241 511 61 94 106 121
242 508 63 86 100 116
242 510 63 107 113 123
244 509 63 101 108 118
245 511 63 104 110 120
192 449 79 56 92 120
193 450 79 67 93 121
192 453 78 72 98 120
192 454 78 77 100 121
194 452 79 102 114 133
192 457 78 103 115 129
192 459 78 98 109 124
194 456 79 123 130 141
192 461 77 117 125 136
193 461 78 111 120 131
193 462 77 114 121 131
194 461 78 106 116 128
194 462 79 105 115 128
196 463 79 96 108 124
194 448 80 92 112 133
194 450 80 100 114 133
194 453 80 112 122 139
195 454 80 108 120 136
197 448 82 110 126 145
197 451 81 106 121 140
199 448 83 100 119 143
199 450 83 101 119 140
196 452 80 109 122 141
197 453 81 112 123 140
197 454 81 109 120 135
198 453 82 104 117 135
198 454 82 101 113 129
199 455 83 112 117 126
195 457 80 106 117 131
196 457 80 104 115 129
196 458 80 95 106 119
198 457 81 110 117 128
198 458 81 106 113 124
196 461 80 95 107 123
196 462 80 96 108 123
198 461 81 78 95 114
198 463 80 91 104 121
200 451 83 84 104 128
201 449 84 99 118 140
201 450 85 106 121 142
203 449 85 91 112 134
203 451 85 64 93 121
200 455 83 110 116 125
201 453 84 103 114 130
203 452 85 49 84 115
203 454 84 75 93 109
205 449 85 77 103 130
205 450 85 65 95 123
207 449 86 90 109 133
207 450 86 70 95 124
205 453 85 56 82 106
205 454 85 64 87 106
207 452 85 55 84 113
206 455 85 96 107 121
200 456 83 116 120 127
200 458 82 105 112 121
202 456 83 108 113 122
203 458 83 108 111 118
200 460 81 89 104 121
201 461 82 87 99 116
201 462 81 78 93 111
203 460 82 93 101 112
202 463 81 86 98 110
203 462 82 103 108 116
205 459 83 81 94 108
204 456 84 111 115 122
206 456 84 72 89 106
207 458 84 72 87 102
205 460 83 94 102 113
205 462 81 112 115 120
207 461 81 111 114 120
207 460 83 104 108 116
207 462 81 113 116 121
192 466 75 90 106 123
193 464 77 105 114 126
193 467 76 93 110 128
195 464 79 98 109 123
195 466 77 105 115 129
192 469 74 121 127 138
192 471 72 92 108 125
192 470 74 109 120 134
194 470 74 72 96 119
195 471 75 77 99 120
195 468 77 87 103 121
197 464 79 97 109 123
196 466 78 106 114 126
198 465 79 101 112 126
198 466 79 96 109 124
196 471 75 85 103 121
196 469 76 79 100 122
197 470 76 75 98 120
199 468 77 94 109 125
199 471 76 73 94 114
192 475 69 103 114 127
193 474 71 110 118 130
195 475 71 121 127 136
193 477 69 127 130 135
192 479 68 117 124 135
194 476 70 123 128 137
195 477 71 124 128 136
194 478 70 129 132 138
197 477 71 126 130 137
197 478 71 126 130 138
199 479 71 104 114 126
194 472 73 101 114 129
195 472 74 97 111 126
195 475 72 119 125 134
197 472 74 100 111 124
196 475 73 116 122 131
198 472 75 97 110 125
199 473 75 93 105 119
199 475 74 113 118 127
197 477 72 124 128 136
199 477 72 115 122 132
200 465 79 103 111 122
201 467 79 115 120 129
203 467 79 107 114 123
200 469 78 89 104 120
201 470 77 74 93 111
203 468 78 98 107 118
202 470 78 72 92 110
204 467 79 94 103 114
207 466 79 115 119 127
205 468 78 90 101 114
204 470 78 71 90 108
206 469 78 77 93 109
206 470 78 76 93 110
200 473 75 93 105 117
201 475 74 116 119 125
203 475 75 106 112 120
201 472 77 68 90 110
203 472 76 85 99 115
200 477 73 104 112 122
200 478 72 97 107 119
202 477 73 103 110 121
203 477 74 114 117 124
203 479 72 110 115 123
204 472 77 74 92 109
204 474 76 100 108 118
207 472 77 89 101 113
207 474 76 113 117 124
205 476 74 121 123 126
204 479 73 117 120 127
206 476 75 121 123 128
206 478 73 121 122 127
207 479 73 117 119 125
200 464 80 83 98 113
201 466 80 110 116 126
203 466 80 96 104 112
206 464 80 116 117 120
207 466 80 116 119 125
208 451 85 47 81 116
209 451 86 61 89 121
210 450 86 65 93 124
208 453 85 55 85 110
209 454 85 79 95 112
210 452 86 71 89 113
211 454 85 121 123 130
213 449 86 79 100 126
214 448 86 94 109 129
214 451 86 100 109 122
213 452 86 102 110 122
213 455 85 131 128 129
215 452 86 95 104 118
215 455 85 128 128 134
208 456 84 85 96 110
209 457 85 114 117 125
210 457 84 122 122 127
210 458 84 112 116 123
208 460 83 106 110 117
208 462 81 110 113 118
210 460 83 99 103 109
211 461 83 95 101 110
211 462 82 95 102 111
213 457 85 124 123 126
214 456 85 129 127 130
214 459 84 118 121 128
212 461 83 98 105 115
212 463 82 91 96 103
215 460 83 98 104 111
215 462 83 109 111 117
216 448 86 89 108 130
216 451 86 97 107 122
219 448 86 80 106 132
219 451 86 99 111 129
216 455 85 115 120 129
218 452 86 126 129 137
219 454 85 70 89 106
220 448 86 78 105 133
220 451 86 98 113 133
223 448 86 81 101 132
223 451 86 90 106 130
220 454 85 89 101 115
221 455 86 136 136 141
222 455 85 143 141 143
216 456 85 126 126 131
216 458 85 106 111 119
218 456 85 106 115 127
218 458 85 91 102 115
216 461 83 113 115 120
217 462 83 114 115 120
218 463 83 115 116 120
218 460 84 118 116 118
221 456 85 137 135 139
221 458 85 112 115 121
223 456 85 139 137 139
222 459 85 106 109 116
221 462 83 113 114 117
220 461 84 115 116 121
222 460 84 102 106 112
222 462 84 113 116 121
209 467 79 83 94 106
208 470 78 75 92 110
209 471 79 68 87 104
210 471 78 78 93 109
213 469 79 81 95 110
213 471 78 86 99 112
215 471 79 87 99 112
208 472 77 89 100 113
209 472 78 85 98 113
209 475 76 117 119 125
211 472 78 87 99 113
211 474 77 105 111 121
209 476 74 122 123 127
209 478 73 117 120 126
210 477 74 114 117 123
211 479 73 115 118 124
212 473 77 106 113 123
212 474 76 110 114 121
213 475 76 108 113 120
215 472 79 92 102 114
215 475 76 112 115 120
212 477 74 108 113 121
212 478 74 114 118 124
214 476 75 109 114 122
214 479 74 122 124 128
214 476 76 108 113 121
217 471 79 92 101 113
216 472 79 94 104 114
216 475 76 115 117 122
217 474 78 117 119 124
219 473 78 118 120 125
218 474 78 120 122 126
216 479 75 102 108 116
216 476 76 117 119 123
217 478 76 111 114 120
219 477 76 114 117 123
220 473 78 117 119 123
220 475 78 118 119 124
222 474 78 113 116 122
220 479 75 106 110 117
221 477 77 113 116 122
221 478 76 109 112 119
222 476 78 113 116 122
223 478 77 118 120 125
209 464 81 113 115 120
210 464 80 113 113 117
211 465 81 110 113 119
209 468 80 76 91 106
212 464 81 104 106 110
212 466 81 107 113 123
214 464 81 103 107 114
215 465 82 97 104 114
215 467 81 78 95 111
214 468 80 53 82 105
216 465 82 93 102 113
217 466 81 85 98 112
218 464 83 114 115 120
219 465 83 112 115 121
219 467 82 75 90 104
217 468 81 74 91 107
218 468 81 70 87 104
219 470 80 83 95 109
221 464 83 107 111 118
221 466 82 85 97 111
223 465 83 96 105 116
223 466 83 87 98 111
221 468 81 71 88 105
220 471 80 86 98 111
223 469 81 69 85 101
222 470 81 75 89 103
220 472 80 94 102 113
223 472 81 94 101 111
192 481 66 108 118 131
192 483 65 107 118 131
194 481 67 113 120 129
195 483 66 76 99 121
195 480 68 124 128 135
192 485 64 86 104 123
193 486 64 83 102 120
194 484 66 91 106 122
194 487 64 76 97 116
196 483 67 79 101 122
196 480 69 122 128 138
197 480 70 119 128 139
199 481 69 115 122 132
199 481 70 114 122 133
199 483 68 129 130 135
197 484 67 95 110 127
197 487 64 69 95 119
198 485 66 93 108 123
198 487 64 74 98 120
199 487 66 80 100 119
198 488 65 66 94 118
199 490 64 67 93 115
201 481 70 125 126 130
201 482 69 125 126 131
202 481 70 126 126 129
202 482 70 126 126 129
200 484 67 125 127 133
200 487 66 83 101 119
202 486 67 87 100 115
203 487 67 65 89 110
202 484 69 125 126 130
203 484 70 128 127 129
205 481 71 102 111 121
205 483 70 110 116 123
206 483 70 86 100 115
204 487 67 57 86 108
204 485 68 96 109 123
205 484 70 99 108 119
206 485 69 89 101 115
206 486 69 77 94 111
202 480 72 103 110 118
206 481 72 90 103 117
200 489 65 59 89 114
200 490 64 69 94 116
203 489 65 63 89 111
202 491 64 104 112 122
203 492 64 114 119 127
205 488 66 51 82 107
204 491 65 93 106 121
206 488 67 49 83 108
206 491 64 114 117 123
204 492 64 107 112 120
207 492 65 129 127 129
208 483 71 93 104 116
211 483 71 119 121 126
209 484 70 94 104 116
208 487 68 50 82 107
210 485 70 84 98 113
210 487 68 57 84 106
210 486 70 64 88 108
215 483 71 105 111 120
212 486 69 69 90 108
213 486 70 77 93 109
215 485 70 76 92 108
214 486 70 75 92 109
209 480 72 100 107 115
210 480 73 112 116 122
211 481 73 122 122 125
213 480 73 124 124 127
214 480 73 125 124 127
215 480 74 121 124 130
215 482 72 117 120 126
208 489 67 68 90 110
208 491 65 119 121 126
210 488 67 65 87 107
210 490 67 76 93 110
209 488 68 54 82 106
208 493 64 125 125 128
209 494 64 124 124 127
211 493 65 114 118 126
211 494 64 116 120 127
212 490 67 83 98 113
214 491 66 68 89 107
212 488 68 73 91 110
213 489 68 78 94 110
215 488 69 76 94 111
212 492 66 78 93 108
213 494 64 77 93 108
214 492 66 70 90 107
214 494 65 75 93 110
216 485 70 73 91 108
216 486 70 66 87 105
218 486 70 59 83 104
219 487 70 68 90 109
221 487 70 74 93 112
216 480 74 111 116 124
216 483 72 99 108 119
217 482 74 94 104 116
219 481 74 92 102 113
219 482 74 95 104 114
219 484 72 91 101 113
220 481 75 108 110 116
220 482 74 101 107 117
222 483 73 84 99 114
223 482 75 118 119 124
223 480 76 121 122 127
220 485 72 74 91 107
222 484 73 74 91 108
223 485 73 73 89 106
216 491 67 70 89 107
217 489 68 75 92 109
218 488 69 75 92 110
219 488 70 76 94 111
216 492 66 66 88 108
217 493 67 77 93 109
217 495 65 81 96 112
218 493 67 80 94 109
218 494 66 79 94 110
220 488 69 79 95 111
221 489 70 93 104 117
221 491 68 100 108 118
223 488 71 86 99 113
223 490 69 109 114 122
221 493 67 96 108 121
221 495 66 92 103 116
223 494 67 90 104 120
221 492 68 92 104 117
223 492 69 88 101 115
213 496 64 87 97 110
217 496 64 79 95 111
219 496 65 82 96 111
220 496 65 90 101 115
220 496 66 93 102 113
222 497 65 97 106 118
222 499 64 129 128 131
224 449 86 94 107 127
225 450 86 105 117 134
227 449 86 97 111 136
224 452 86 139 141 149
224 455 86 146 142 144
227 452 86 111 121 137
227 455 86 145 144 149
228 450 86 108 118 136
230 449 86 106 115 140
231 450 86 107 117 135
229 453 86 127 137 152
230 452 86 149 155 168
230 455 86 76 99 123
224 456 86 143 140 142
225 459 85 123 124 130
227 457 86 124 128 137
224 463 83 94 100 109
225 460 85 96 102 110
225 463 84 93 101 111
227 461 84 123 121 123
227 462 85 121 121 124
228 457 86 83 103 125
229 458 85 114 120 131
230 457 86 99 114 131
230 458 86 132 132 136
228 461 85 126 123 123
228 463 85 123 121 122
231 460 85 128 124 124
231 463 85 111 113 119
233 449 86 109 115 148
234 448 86 109 119 149
234 451 86 129 136 150
233 452 86 100 116 137
233 455 86 140 139 144
234 454 86 149 146 148
236 449 86 93 112 152
237 450 86 141 150 167
238 449 86 96 111 147
239 451 86 143 146 156
236 454 86 158 154 156
238 453 86 163 158 160
239 454 86 99 112 132
233 457 86 107 113 123
233 459 86 118 120 126
234 458 86 113 117 125
232 461 85 123 121 124
233 462 85 111 114 121
234 460 86 111 113 120
235 462 85 136 134 137
237 457 86 100 110 125
238 456 86 101 110 125
238 459 86 138 136 140
236 461 86 116 118 125
237 463 85 108 114 123
238 461 86 118 121 129
238 463 86 95 103 114
224 475 78 101 106 114
226 475 79 109 112 118
225 476 79 107 111 117
224 478 78 118 118 122
226 477 78 111 114 120
226 479 78 111 115 122
228 476 79 105 109 114
228 478 78 97 105 115
230 476 79 104 108 115
230 479 78 72 87 103
232 479 78 105 109 116
234 479 79 119 118 120
224 466 82 83 95 107
225 467 83 67 83 99
227 467 83 78 90 103
226 465 84 87 98 110
224 469 82 69 84 99
225 471 81 92 100 110
226 469 82 71 85 99
226 470 82 83 94 107
228 467 83 73 88 103
231 466 83 74 90 105
229 465 84 86 98 111
231 464 84 94 101 111
228 468 83 79 89 101
229 469 83 76 87 100
230 468 83 72 87 102
230 470 83 94 101 111
224 472 80 101 108 117
225 473 80 105 110 118
227 472 81 103 107 113
228 472 81 110 112 116
229 473 81 115 115 117
230 473 80 114 113 116
230 474 80 112 113 116
230 476 80 104 108 114
232 465 84 96 106 118
232 467 84 85 94 105
235 464 85 108 114 123
235 466 84 86 96 109
232 469 83 84 93 104
233 471 82 100 105 112
235 470 83 95 101 109
234 469 84 83 92 103
236 465 85 88 100 113
237 466 85 84 95 107
239 465 85 95 104 117
239 467 85 99 106 118
237 468 85 81 92 104
237 471 84 100 105 113
239 469 84 93 102 113
239 471 84 101 106 114
233 472 82 101 105 112
233 474 81 102 106 113
235 472 83 101 105 111
235 475 81 91 99 108
232 477 80 101 107 116
234 476 80 95 101 109
235 477 80 111 113 118
235 479 80 117 117 120
236 474 82 97 103 112
237 475 82 94 102 113
238 475 82 100 106 114
237 472 84 104 107 112
236 477 81 100 106 114
236 478 81 103 107 113
238 477 81 83 95 109
238 478 81 82 95 108
239 478 82 77 91 105
240 449 86 108 120 147
241 451 86 101 117 139
242 450 85 50 84 124
243 451 86 63 90 130
240 454 86 87 104 130
242 453 86 98 116 137
243 454 86 131 135 151
245 448 85 117 124 147
245 451 85 153 154 166
247 449 85 137 141 158
244 452 85 136 142 155
244 454 86 128 136 152
246 453 85 168 165 173
246 454 86 127 138 164
240 457 86 145 144 149
241 458 86 140 140 147
243 457 86 148 150 160
240 460 86 128 130 138
240 463 86 112 118 128
243 460 86 157 154 159
243 463 86 121 127 140
244 458 86 133 137 153
246 457 86 100 114 155
247 458 86 117 129 150
245 461 86 156 153 157
246 460 86 163 157 157
246 463 86 122 127 140
248 449 85 166 161 164
248 451 85 181 173 173
251 448 84 136 138 164
251 450 85 123 141 168
249 453 85 96 119 157
249 454 86 123 131 157
251 453 85 120 127 157
251 454 86 174 168 170
255 448 83 118 122 159
253 448 84 116 124 158
253 450 84 52 71 149
254 450 84 60 83 147
252 453 85 161 160 169
253 455 85 172 163 163
254 452 85 159 159 170
254 454 85 176 166 165
248 456 86 151 157 172
248 459 86 137 141 153
251 456 86 173 167 167
251 459 86 155 158 169
248 462 86 116 124 139
250 461 86 83 101 130
251 462 86 100 110 135
253 457 86 178 169 167
255 456 85 169 170 177
255 457 86 151 157 169
252 460 86 95 115 143
252 463 86 108 120 139
255 460 86 112 119 148
255 463 86 99 117 143
240 466 85 99 108 121
241 466 86 98 108 123
243 465 86 98 109 123
240 468 85 96 105 117
240 470 84 95 101 110
241 471 85 105 107 112
243 468 86 94 103 115
244 464 86 100 111 127
244 467 86 97 106 119
247 464 86 116 123 137
247 467 86 112 118 128
245 468 86 100 107 118
245 471 85 113 112 115
246 470 85 109 110 115
247 470 86 105 109 115
241 474 83 102 103 107
240 473 84 99 101 106
242 472 85 106 108 113
242 474 84 98 102 109
240 476 83 102 105 111
240 479 81 75 90 104
242 476 83 96 101 109
242 478 82 88 97 108
243 479 82 100 105 112
245 473 85 98 102 109
245 475 84 64 81 97
246 474 84 67 82 97
247 475 84 90 95 103
244 478 83 97 102 110
246 477 83 79 87 97
247 479 83 105 108 113
247 476 84 96 99 104
249 464 86 116 121 135
249 467 86 106 114 127
250 466 86 112 119 131
248 469 86 106 112 121
249 470 86 92 102 115
251 469 86 90 101 115
252 464 86 103 110 128
252 467 86 96 114 135
254 464 86 106 115 135
254 467 86 112 122 136
252 468 86 107 118 133
252 471 86 115 119 126
255 468 86 142 141 146
255 471 86 67 89 110
249 473 86 103 104 107
250 472 86 105 107 112
250 475 85 109 107 109
248 478 83 85 91 100
248 476 84 99 101 106
248 478 84 85 92 101
251 476 85 107 108 112
251 478 84 75 84 95
253 473 86 118 118 122
252 474 86 115 114 116
255 473 86 108 113 121
255 475 86 110 110 113
253 477 85 104 104 108
253 479 84 67 79 92
254 478 84 84 91 99
255 479 85 102 105 111
225 482 75 109 115 124
224 480 77 123 123 127
225 482 76 119 122 128
226 482 76 102 110 121
224 485 73 72 90 107
224 486 72 67 86 104
226 484 74 79 95 112
227 485 75 74 89 105
226 486 74 71 88 105
229 480 77 76 90 106
228 482 77 80 92 105
230 480 77 74 88 103
231 481 78 91 98 108
231 483 77 82 93 107
228 486 74 64 85 104
229 487 74 72 90 107
231 487 75 73 90 108
230 484 77 78 90 103
230 486 76 67 86 103
225 488 71 85 98 111
225 490 70 101 110 121
226 491 70 87 102 117
224 494 67 93 105 120
224 492 69 86 100 115
225 493 69 93 104 117
227 493 69 97 105 116
227 494 68 114 117 124
229 491 71 84 98 114
228 492 70 84 99 114
228 494 68 117 119 124
229 495 68 115 119 126
231 493 70 114 118 124
231 495 68 94 106 118
226 488 72 83 96 111
227 490 72 89 102 117
229 489 72 86 99 113
230 488 73 82 96 111
231 489 74 80 94 109
231 490 73 94 103 115
233 480 79 113 114 119
233 483 77 83 95 108
234 481 78 109 111 117
235 483 77 78 90 102
235 483 78 88 97 108
232 484 77 77 90 103
233 485 77 78 90 103
234 484 77 75 88 102
235 485 77 69 86 103
236 481 79 110 114 121
237 483 78 73 90 106
239 483 79 67 85 102
237 484 77 69 85 101
237 486 76 74 90 106
238 485 78 68 86 102
238 487 76 77 92 107
232 493 70 110 115 122
232 495 69 88 101 116
234 493 71 105 111 120
234 495 70 90 102 115
236 495 70 103 109 118
238 494 71 105 111 119
232 488 74 76 91 107
233 489 74 103 109 119
233 491 73 126 125 127
235 488 74 106 111 119
234 491 73 126 124 126
234 492 72 123 123 126
236 489 75 107 111 118
237 491 73 114 116 121
238 488 75 87 98 110
238 491 74 102 108 117
239 488 76 78 92 107
237 492 72 108 114 123
238 493 72 107 113 121
238 492 74 92 102 114
236 480 80 115 116 121
239 480 80 82 95 109
225 497 65 111 114 120
224 498 64 114 116 121
225 499 64 119 119 123
227 496 66 112 116 123
226 499 65 106 112 120
225 500 64 122 123 126
227 501 64 101 109 120
229 497 66 95 105 117
229 498 66 94 105 118
230 499 65 95 106 120
231 498 67 89 103 119
228 500 64 95 106 119
229 501 65 92 103 116
231 500 65 104 110 119
231 502 64 107 112 119
232 499 67 95 103 114
234 499 67 108 112 119
233 496 68 81 97 114
234 497 68 101 109 119
235 496 70 94 103 114
233 501 65 114 117 123
232 502 64 104 109 117
233 503 65 102 109 118
235 500 67 110 115 122
235 503 65 91 102 115
237 496 69 101 108 117
236 499 68 114 118 125
238 496 70 108 112 118
238 498 69 94 103 114
239 498 70 90 101 114
237 501 66 98 110 123
237 502 66 89 103 117
238 502 66 76 95 114
237 500 68 112 117 126
233 504 64 104 110 119
235 505 64 87 100 114
237 504 65 89 102 116
238 505 64 91 103 116
239 504 66 87 102 117
240 483 79 68 85 101
241 485 79 70 87 104
241 486 78 78 92 107
243 485 79 72 87 102
243 486 79 79 92 106
244 487 79 84 95 108
247 487 79 99 103 111
240 491 75 77 93 109
240 488 77 80 93 107
241 490 76 77 93 108
243 489 77 93 102 112
243 490 77 98 105 115
240 493 74 120 120 124
240 494 73 125 125 127
242 492 74 103 111 121
242 494 73 121 121 124
242 494 74 120 120 123
245 488 78 101 106 114
245 490 77 109 112 119
246 489 78 118 119 122
246 491 76 105 111 119
244 492 75 82 95 109
244 495 73 99 107 117
245 495 74 80 93 107
247 494 75 63 84 103
246 492 77 82 95 108
247 494 76 52 77 98
249 488 79 115 116 120
248 490 78 112 116 122
250 489 79 109 112 116
251 490 79 93 100 109
249 495 75 64 89 110
249 492 77 81 94 108
249 495 76 69 91 111
251 492 78 96 105 115
251 494 76 74 91 107
253 490 79 88 95 105
252 492 79 96 105 117
252 494 77 86 98 111
253 495 77 94 102 112
255 492 79 85 96 109
254 494 78 101 107 116
240 480 81 77 90 103
240 482 80 64 82 100
242 481 81 78 88 100
242 482 81 76 88 101
241 484 80 69 86 101
244 480 82 107 109 114
244 483 80 73 87 101
246 480 82 111 113 117
246 482 81 89 98 109
247 482 82 89 97 105
245 485 80 69 86 103
246 485 81 67 85 102
247 486 80 82 92 104
249 480 83 89 96 106
249 483 82 78 87 98
250 482 82 82 91 101
251 483 82 78 90 102
248 484 82 70 83 96
249 486 81 85 94 105
250 485 82 73 86 99
250 487 81 89 97 106
253 481 83 64 77 89
253 483 82 81 89 99
255 482 83 81 88 97
254 480 84 84 92 102
252 484 82 77 88 100
252 487 81 84 94 104
254 485 82 81 90 99
254 487 81 79 90 102
248 488 80 104 107 112
252 488 80 89 97 107
253 490 80 84 92 103
255 489 80 71 87 102
255 491 80 75 90 105
241 497 70 83 98 112
240 498 70 80 96 112
242 498 70 86 100 116
243 499 71 77 93 109
241 502 67 82 98 114
243 503 67 104 113 125
241 501 68 83 98 114
242 501 69 85 100 114
242 502 68 89 102 116
245 499 71 95 104 116
244 501 70 98 107 118
244 502 69 87 101 116
246 500 71 104 112 123
246 502 69 90 101 114
246 502 70 93 102 114
243 496 72 98 107 118
245 496 73 81 96 111
245 498 72 93 102 114
247 497 73 81 96 111
246 498 73 89 100 112
246 500 72 112 118 127
240 504 66 94 107 121
241 506 64 89 103 118
242 504 67 102 113 125
242 506 65 75 93 111
243 507 65 98 108 120
244 504 67 89 101 115
245 505 67 101 109 119
245 506 66 96 107 120
246 506 66 106 114 125
244 504 68 84 100 115
244 508 65 97 106 119
245 510 64 83 95 108
247 509 64 84 94 108
247 511 64 91 101 113
248 503 69 110 114 122
250 501 71 97 106 117
250 503 70 104 111 121
252 503 70 93 105 117
255 503 71 84 100 117
249 496 74 70 91 110
248 499 73 107 113 122
250 497 74 88 99 112
250 499 73 93 102 114
251 496 76 71 88 104
251 500 72 102 109 119
253 497 75 53 73 92
253 499 74 98 106 115
255 499 74 96 107 120
254 496 76 58 77 96
255 497 76 76 87 99
253 501 72 108 114 123
254 501 73 99 108 119
254 502 72 97 108 121
248 505 67 90 102 115
249 507 67 100 110 123
248 504 69 109 113 119
250 504 69 101 109 119
251 505 69 91 105 121
251 507 68 82 98 115
248 508 66 101 111 123
249 510 65 83 94 108
250 508 67 94 105 118
250 510 64 89 98 110
251 511 65 100 107 117
253 504 70 90 102 116
253 506 69 89 102 117
254 505 70 96 106 119
254 507 68 94 106 121
255 506 70 99 107 117
253 509 67 97 106 118
253 511 64 94 103 116
254 509 67 101 109 120
254 511 66 98 109 122
254 508 68 101 110 122
190 415 159 85 90 96
183 415 171 57 66 76
183 414 173 58 64 71
182 415 175 55 62 73
185 415 167 60 67 75
187 415 165 74 78 85
187 414 167 58 66 74
188 415 162 76 82 91
190 413 163 77 83 91
190 415 161 83 88 96
190 414 163 76 83 91
188 413 167 65 70 76
188 414 165 73 78 84
190 413 164 72 79 86
191 413 165 77 81 88
191 412 166 70 76 84
187 411 175 52 55 60
184 414 171 56 63 72
185 415 170 56 65 75
187 412 170 57 66 74
186 414 169 58 66 73
186 414 171 57 63 70
185 412 175 68 74 81
184 415 172 61 68 76
186 412 173 53 56 62
187 413 172 60 66 72
188 411 171 62 67 73
191 410 169 65 73 81
190 411 170 61 69 77
188 411 172 58 62 67
188 410 174 50 48 50
189 410 175 54 54 60
191 408 174 60 63 68
190 410 173 47 46 57
188 413 168 68 73 80
188 412 171 62 68 75
179 415 180 56 69 83
180 415 177 56 68 79
181 414 178 53 68 81
183 413 178 58 68 79
183 414 176 61 65 74
180 415 180 47 65 81
180 414 182 43 65 86
181 414 183 40 64 87
182 413 183 48 68 89
182 414 181 39 62 83
179 415 187 53 73 90
178 415 191 32 61 82
180 415 184 42 65 84
180 414 187 59 80 99
182 413 184 54 72 92
183 413 185 64 79 97
183 413 186 62 81 100
180 414 189 50 75 96
180 414 190 41 70 95
181 414 191 42 72 97
183 413 188 54 78 101
183 412 191 68 88 107
191 407 179 52 48 51
191 407 181 50 39 41
191 407 182 48 37 40
188 407 186 58 68 79
191 405 187 52 42 44
191 406 184 47 34 32
191 406 186 59 45 44
189 406 188 65 68 78
188 407 190 57 66 79
191 404 189 64 60 58
190 405 190 61 59 62
190 406 189 65 65 73
187 410 177 49 54 61
186 411 179 48 55 67
185 410 183 58 71 84
187 409 183 53 67 81
187 410 181 52 58 69
184 413 177 61 67 77
184 412 179 45 58 73
186 412 176 56 58 64
185 412 181 49 64 79
189 409 177 50 53 57
189 409 179 49 59 69
188 410 178 48 50 60
191 408 177 51 55 60
188 409 181 50 60 71
188 408 183 52 57 69
190 408 180 50 50 54
185 410 185 58 74 93
185 410 186 59 78 98
186 409 185 52 71 88
186 409 187 55 75 94
186 410 184 48 65 82
184 411 188 51 77 102
185 411 189 63 86 107
185 411 190 74 93 113
187 408 189 69 80 97
186 409 191 75 89 106
184 412 184 62 77 96
184 412 189 50 79 103
189 408 184 53 60 69
175 431 154 66 74 85
174 431 156 78 84 94
175 431 157 76 82 92
175 430 158 79 84 92
175 439 141 82 88 97
175 439 142 93 98 105
175 443 135 62 75 88
174 447 129 52 65 79
174 446 131 65 77 91
173 445 135 87 97 111
173 447 133 89 100 113
173 446 134 86 97 110
175 444 132 62 73 84
174 444 135 79 89 102
171 443 141 70 83 97
169 447 139 73 90 106
171 446 136 80 92 106
170 446 139 73 85 98
169 445 143 86 101 118
169 446 142 83 98 116
170 445 140 74 85 99
170 444 142 74 87 101
172 443 139 78 88 101
175 441 137 70 79 91
175 440 139 77 86 99
174 443 137 79 89 101
174 442 139 80 90 103
172 441 143 79 88 99
172 442 141 69 81 95
172 442 142 70 84 98
175 440 140 75 86 97
172 445 137 83 93 107
172 444 139 80 90 102
174 444 136 76 89 103
171 439 148 66 82 98
171 438 150 74 88 103
173 435 151 70 80 91
175 435 148 84 90 99
174 435 151 65 77 90
173 439 144 86 93 103
173 438 146 83 91 102
175 437 144 88 93 101
175 436 146 89 95 104
175 438 144 90 96 104
172 436 150 64 78 92
173 436 151 69 80 92
172 438 150 64 79 95
171 436 153 108 114 124
171 437 155 128 136 150
171 438 153 112 122 136
173 433 154 87 93 101
173 435 152 74 85 97
173 434 154 93 98 107
175 432 152 64 77 92
174 433 154 77 84 94
174 434 153 64 78 93
173 433 158 132 132 139
172 435 157 141 144 153
173 435 158 143 146 157
174 432 159 132 132 139
172 436 155 126 131 142
172 437 156 127 136 152
173 437 158 134 142 157
173 438 157 129 139 154
174 437 159 136 144 161
174 439 157 127 135 150
175 438 158 121 132 149
171 441 145 71 84 98
171 441 146 68 82 97
171 442 145 73 86 100
170 443 147 92 109 129
171 440 148 66 83 100
170 442 148 93 108 126
170 442 151 128 136 151
171 443 151 133 140 154
169 444 146 101 116 137
169 447 144 95 113 140
170 444 146 89 106 128
171 447 145 108 120 140
171 447 146 106 119 139
171 445 148 111 123 144
172 441 144 78 88 100
172 443 151 136 142 155
173 447 145 91 104 124
173 447 146 95 107 126
175 446 147 111 119 134
173 444 149 118 126 141
172 446 148 104 116 136
175 445 148 105 115 132
170 440 152 122 131 145
171 441 153 140 145 158
172 441 153 139 145 159
173 440 155 119 129 148
173 442 153 132 139 154
175 440 155 125 131 143
175 442 152 105 118 135
183 431 141 69 75 83
183 430 143 69 76 84
191 423 138 18 42 62
191 422 140 37 55 69
190 423 142 53 66 79
186 431 129 23 41 73
186 431 130 28 43 66
187 431 131 21 41 62
186 430 133 74 80 88
186 430 134 84 89 97
189 426 128 71 94 117
189 427 131 47 73 98
191 424 128 66 87 106
191 425 130 73 98 122
190 426 131 65 90 113
189 427 134 11 35 61
190 425 135 9 37 64
190 426 133 26 50 74
190 426 134 14 36 65
188 429 129 44 71 104
189 428 130 49 74 104
188 430 130 25 47 81
189 428 133 10 36 62
189 428 134 18 33 59
186 427 142 81 88 98
187 427 143 89 95 104
184 431 139 78 86 96
186 429 136 85 90 98
187 429 137 83 89 98
187 428 139 86 92 101
185 429 141 81 87 95
185 429 142 75 81 90
185 430 140 87 92 99
186 429 140 90 95 102
189 425 138 44 60 73
189 426 137 41 56 70
188 427 139 78 85 95
191 424 136 14 39 63
190 425 138 32 51 67
188 425 141 66 79 92
188 424 143 56 72 88
188 426 140 74 83 94
190 424 141 53 68 82
183 423 154 46 59 73
181 423 159 56 66 76
182 423 157 45 58 70
182 422 159 61 70 79
177 431 150 54 68 81
178 431 149 47 59 71
178 430 150 44 59 73
179 430 151 54 67 78
183 425 151 38 53 65
183 427 148 65 74 84
182 427 151 53 61 70
180 431 145 62 68 76
180 431 146 56 63 71
183 428 145 66 72 80
182 429 147 59 67 76
182 431 144 66 72 80
181 428 149 58 69 79
180 429 150 59 69 79
182 428 148 64 72 82
177 427 158 61 73 84
179 425 159 56 63 73
179 426 157 49 62 77
179 426 158 61 70 83
176 431 152 68 79 91
176 430 154 63 73 85
178 429 152 64 72 82
178 428 154 55 66 77
178 430 152 61 71 81
177 428 157 53 66 80
176 429 158 67 76 85
178 428 156 52 65 77
180 427 153 48 60 72
180 426 154 31 50 65
182 425 152 33 52 68
183 425 153 37 54 69
183 424 155 45 58 71
181 424 157 40 54 69
