ply
format ascii 1.0
comment Version 2, Copyright 2017, 8i Labs, Inc.
comment frame_to_world_scale 0.179523
comment frame_to_world_translation -45.2095 7.18301 -54.3561
comment width 1023
element vertex 2234
property float x
property float y
property float z
property uchar red
property uchar green
property uchar blue
end_header
275 201 52 107 45 43
275 200 55 106 45 38
274 203 53 99 41 39
274 203 54 96 36 33
273 204 48 93 33 51
273 205 51 93 39 46
272 207 50 88 35 48
273 207 51 91 33 46
273 206 52 94 34 43
273 206 55 98 39 42
274 205 52 98 40 47
274 205 55 98 38 41
273 203 58 98 44 40
274 201 57 111 58 49
274 201 59 104 53 39
274 202 58 103 49 39
273 201 61 102 51 43
273 202 60 101 42 38
273 202 63 97 42 32
273 204 57 97 38 38
273 205 58 99 36 36
273 207 56 93 32 36
273 206 58 97 36 38
273 204 60 99 48 39
273 204 63 101 51 43
272 207 60 96 43 43
273 206 62 91 40 33
272 210 35 55 75 102
273 208 37 49 65 84
273 209 38 61 79 100
273 210 37 56 72 94
273 211 39 53 76 95
273 212 37 58 72 94
273 213 39 57 74 94
273 214 39 78 83 99
272 208 41 47 54 72
272 208 42 39 40 61
273 211 41 51 65 82
273 211 42 40 58 76
272 212 42 39 59 76
273 214 40 69 81 99
273 214 43 43 63 81
274 215 40 73 71 88
272 215 44 34 54 76
273 217 38 106 90 98
273 219 38 122 78 78
274 219 39 104 84 88
273 221 39 133 87 87
273 223 39 121 89 90
273 216 42 56 75 92
274 216 41 66 66 81
274 217 42 71 77 89
275 219 40 95 77 87
274 219 43 41 47 75
272 218 44 34 51 79
273 219 45 34 59 86
275 220 41 88 61 72
275 220 43 47 38 66
275 222 40 118 86 95
275 222 43 77 71 70
272 221 46 39 60 80
273 222 46 39 60 81
274 221 44 56 73 91
275 222 44 78 83 91
274 223 46 63 68 80
276 223 44 98 91 94
272 210 51 75 42 49
273 208 52 95 36 46
273 208 55 96 35 45
272 210 55 90 33 38
272 209 56 92 34 41
272 209 58 90 34 36
272 211 57 95 35 42
272 208 60 95 46 47
272 208 63 95 42 46
272 211 60 93 31 44
272 211 63 88 36 43
272 212 62 91 39 51
272 223 49 11 57 92
257 225 46 125 32 44
258 224 46 124 21 39
258 227 46 102 79 91
257 228 46 117 48 67
257 231 46 110 83 80
258 230 46 119 31 59
260 224 46 130 3 49
260 227 46 115 76 91
263 224 44 133 72 90
263 226 45 144 1 58
263 227 46 117 59 77
260 230 46 128 23 61
262 228 46 110 92 97
262 231 47 135 26 67
257 232 46 115 112 110
257 235 46 127 128 134
258 234 46 131 130 132
256 237 46 110 113 121
257 238 46 117 120 128
259 237 46 116 120 129
260 232 46 127 98 90
260 234 47 126 124 124
262 232 47 130 76 80
262 235 47 142 140 143
260 237 46 124 126 134
260 239 47 124 129 138
263 236 47 149 143 144
263 239 47 140 141 148
271 224 39 98 70 95
265 225 43 122 37 65
267 225 40 100 84 108
267 225 42 113 59 91
267 226 42 132 36 68
264 225 45 140 4 66
265 227 44 151 17 64
265 228 45 105 99 111
264 231 47 148 20 80
266 228 45 114 94 111
266 229 46 127 95 107
266 231 46 145 1 67
268 226 40 116 82 97
269 227 41 146 20 61
270 227 41 149 6 54
268 228 43 142 33 84
269 230 42 117 111 128
271 228 40 163 5 60
270 230 42 115 109 127
271 231 43 142 47 82
268 231 45 161 7 59
265 233 47 147 120 112
266 232 46 144 46 76
267 233 46 147 82 99
267 235 47 170 162 163
264 238 47 162 155 155
266 237 47 179 169 166
267 238 47 177 169 173
271 233 43 177 4 72
269 232 45 168 18 66
268 235 46 174 164 163
271 233 44 174 5 74
271 235 44 195 142 142
269 236 46 184 173 173
269 238 47 169 159 166
271 237 45 190 179 181
271 238 45 189 175 175
271 239 46 183 170 174
267 225 55 38 62 101
267 228 55 31 62 101
271 224 50 49 74 106
268 224 52 39 62 95
269 225 53 41 64 99
269 226 52 50 70 106
270 225 52 49 71 105
271 227 52 23 69 102
268 229 55 32 62 102
269 230 54 30 69 105
271 228 52 17 71 103
271 231 53 61 57 97
267 224 56 38 59 97
267 224 59 40 51 86
267 227 56 27 61 101
267 227 59 38 60 95
267 227 61 31 51 87
267 229 57 28 59 101
267 230 57 32 54 100
267 228 60 33 59 95
267 228 63 35 49 79
267 231 60 32 56 98
267 231 63 50 48 85
268 225 61 41 51 84
269 224 63 36 43 68
268 227 63 34 47 73
269 231 56 27 57 100
266 239 48 163 156 165
270 232 55 36 53 98
270 235 55 83 59 80
271 236 55 105 39 64
267 232 63 50 48 82
267 235 62 66 46 71
267 237 63 96 44 46
268 233 57 25 59 104
268 232 59 49 52 91
269 235 56 68 63 92
268 235 59 71 56 83
268 232 60 49 51 90
268 234 61 64 52 87
269 236 57 86 53 72
269 237 59 106 42 52
269 239 59 108 28 50
271 237 56 112 34 55
271 239 56 111 47 63
268 236 61 95 51 68
268 238 60 106 38 43
268 239 62 105 26 45
257 241 46 110 114 121
258 240 46 123 126 133
258 242 46 108 110 118
259 243 47 102 114 128
256 246 46 140 72 0
258 245 46 122 95 74
259 246 46 99 95 92
261 241 47 124 133 146
262 240 47 117 124 138
262 243 47 111 122 136
261 244 47 111 121 134
260 247 47 90 97 107
263 244 47 112 121 133
263 247 47 85 103 122
256 250 46 137 115 91
258 249 46 126 110 95
259 250 46 120 115 113
257 253 46 133 125 121
257 255 47 133 137 145
259 253 46 121 131 146
259 255 47 133 137 146
261 248 47 88 98 111
261 251 47 110 118 131
262 250 47 100 112 127
260 253 47 116 128 144
261 254 47 137 136 140
263 253 47 120 121 126
264 240 47 137 138 148
271 240 46 190 179 181
264 250 47 91 108 126
263 240 48 124 129 141
263 245 48 103 115 131
265 240 48 159 154 158
265 243 48 152 151 156
266 242 48 167 159 159
264 245 48 104 116 132
265 246 48 105 116 130
267 244 49 144 144 152
267 246 49 123 129 141
269 240 48 191 179 179
269 243 48 165 161 170
271 243 48 180 173 183
269 244 49 157 154 162
269 247 49 131 137 150
271 245 48 181 177 180
271 247 48 140 151 166
269 242 59 96 69 77
271 241 57 91 62 75
270 242 58 96 62 73
271 243 58 103 52 69
269 241 60 99 52 66
268 241 63 101 35 51
269 243 61 91 77 82
269 243 62 100 77 82
271 245 59 107 38 70
269 244 62 101 56 67
269 246 63 111 41 65
270 245 61 111 36 64
271 246 60 108 57 79
270 247 62 104 60 77
264 250 48 89 107 126
266 249 48 88 108 130
267 250 48 93 114 135
264 254 48 100 102 107
266 253 48 100 110 123
266 254 48 98 106 117
267 255 49 86 105 124
269 248 49 110 125 144
269 250 49 97 116 138
271 249 49 92 113 137
268 252 49 92 110 130
268 255 49 94 111 129
271 252 49 99 120 143
271 255 49 78 106 131
270 248 62 94 82 93
271 249 62 88 93 112
270 252 63 79 94 119
270 254 63 74 105 131
273 224 39 110 84 98
272 227 40 150 17 70
275 224 40 108 72 93
274 227 40 143 40 78
275 224 45 82 71 81
275 225 46 81 66 73
273 228 40 174 3 52
273 230 41 132 90 109
274 228 41 167 14 58
274 230 41 134 92 111
275 231 42 123 108 133
276 225 43 79 69 85
276 227 42 116 57 78
276 225 44 80 73 87
277 227 44 81 66 73
276 227 47 79 62 74
277 229 43 121 56 76
277 231 42 130 75 101
277 228 45 95 56 56
277 229 46 96 57 59
278 230 44 107 56 79
278 230 46 99 47 60
279 231 47 113 69 84
273 233 43 187 0 60
274 232 42 165 30 87
274 235 43 186 74 92
273 236 43 199 158 162
272 237 45 174 164 172
272 239 45 192 178 183
274 237 44 187 177 180
274 239 45 199 187 189
276 233 42 154 51 80
276 235 43 174 60 93
278 234 43 145 65 85
279 233 45 105 48 65
278 234 44 143 66 85
279 235 45 133 71 85
277 236 43 172 100 113
276 238 44 188 165 167
277 239 45 186 176 183
279 237 44 157 108 117
279 238 45 153 131 138
280 235 47 115 43 60
281 237 47 121 99 105
281 239 47 96 85 88
273 225 49 26 63 96
273 226 50 35 72 104
274 225 49 40 59 86
275 227 48 83 55 78
275 227 50 62 58 83
275 228 51 56 52 88
272 229 53 44 63 101
272 231 53 66 59 95
274 229 53 47 65 101
275 231 52 65 59 77
276 229 49 72 67 81
276 229 50 72 66 81
276 230 51 76 61 83
278 230 48 96 54 67
273 232 53 73 56 81
273 235 53 95 33 55
274 233 52 87 47 61
274 234 53 94 40 57
272 236 54 109 30 58
273 237 54 106 38 71
273 239 54 101 55 72
275 236 53 105 64 85
275 238 53 105 48 76
276 232 51 94 40 53
276 234 51 96 45 67
278 232 48 101 51 64
279 233 49 107 72 71
278 234 50 105 71 85
276 236 51 114 82 97
279 236 51 100 46 70
277 236 52 93 47 77
277 238 52 107 43 71
278 239 53 106 72 79
280 234 48 115 59 73
280 237 49 107 86 98
280 237 50 100 73 87
280 238 50 94 96 108
281 239 51 100 118 134
273 240 45 199 189 187
273 241 46 193 186 191
274 240 45 195 186 188
275 241 46 181 174 179
275 243 46 193 185 190
275 245 47 196 191 194
276 241 46 180 172 181
278 240 45 173 162 168
279 240 46 161 148 152
279 243 46 194 187 191
277 245 47 192 189 194
279 244 47 188 183 188
281 241 47 144 141 147
281 243 47 146 143 150
281 244 47 161 160 167
273 242 55 118 44 66
275 241 54 108 55 69
272 244 48 180 174 179
272 247 48 145 153 167
275 245 48 191 188 193
276 240 53 115 32 75
277 241 54 87 81 91
278 240 53 88 72 82
278 241 54 73 82 95
279 242 54 73 97 117
277 246 48 189 188 195
279 247 48 186 186 196
272 242 56 97 57 73
273 243 57 100 61 80
273 244 57 96 56 77
273 245 58 95 77 86
273 247 59 78 81 97
275 244 57 93 82 93
274 247 59 69 81 99
277 243 56 78 103 122
277 245 57 101 107 119
277 246 58 95 106 122
279 245 56 76 103 126
278 247 58 101 113 128
273 248 48 133 143 159
273 250 49 116 128 146
275 248 48 165 169 180
275 251 49 153 158 169
272 254 49 84 112 139
274 253 49 100 123 149
275 254 49 116 135 156
277 248 48 188 188 195
277 250 49 185 184 192
279 248 48 195 192 198
279 250 49 192 189 195
277 253 49 162 166 177
276 255 50 110 127 150
279 253 49 161 165 176
279 255 50 172 174 183
272 248 61 90 92 109
272 250 61 84 90 112
274 248 60 74 87 108
274 250 61 75 92 113
274 251 62 73 94 117
273 253 63 77 103 128
274 252 62 76 98 121
275 253 63 66 93 116
276 248 58 92 105 121
277 249 59 86 103 121
279 248 59 91 108 125
276 250 60 87 104 122
276 251 62 87 100 117
279 251 60 69 96 120
277 252 62 83 101 120
277 255 63 77 101 126
279 252 62 72 97 121
279 254 62 66 92 116
282 240 48 99 97 102
282 240 51 93 104 115
282 243 48 137 136 141
283 243 50 132 118 107
281 240 52 100 118 134
280 242 54 76 98 119
282 242 52 92 95 98
280 245 48 181 178 184
281 246 48 174 170 174
282 245 48 160 156 160
283 244 51 121 114 110
282 247 49 167 166 173
280 244 55 69 88 109
283 244 52 79 74 71
282 245 54 87 84 88
283 246 55 78 54 68
284 245 52 132 132 138
284 247 53 153 147 147
280 245 56 72 101 123
281 246 57 66 94 116
283 246 56 71 55 72
280 249 49 199 196 202
281 250 49 192 194 203
283 248 50 157 158 166
283 251 50 174 174 183
281 253 50 182 180 187
281 255 50 187 183 188
283 253 50 187 184 189
283 254 51 185 183 189
284 249 50 149 150 158
284 251 51 160 162 171
285 248 53 155 151 151
285 248 54 157 154 155
285 250 53 144 141 144
286 251 53 127 127 131
284 253 51 161 158 163
285 252 52 147 150 158
286 252 53 141 141 146
287 253 54 141 140 144
286 255 54 133 134 140
280 248 58 69 98 123
281 249 59 80 99 117
283 248 57 66 41 57
282 250 59 72 60 68
283 251 59 91 77 68
283 252 59 99 88 79
281 253 61 64 79 93
281 254 62 66 77 88
283 252 60 84 77 70
283 255 61 95 88 86
284 248 57 74 53 50
285 250 56 128 128 131
284 251 58 141 135 132
284 252 59 135 129 127
286 252 57 146 142 142
286 253 58 150 146 147
287 255 57 158 152 152
287 255 58 158 154 155
284 254 61 137 133 135
286 255 60 132 130 133
271 192 73 36 37 45
271 193 74 36 37 48
270 192 76 39 39 43
270 192 78 41 41 43
271 194 77 37 36 43
271 194 79 42 41 44
271 196 78 37 39 51
269 192 81 54 40 35
269 194 83 58 42 43
270 193 81 46 41 38
270 195 81 40 41 44
270 195 83 45 40 47
269 192 86 95 44 44
269 194 85 82 43 44
269 195 86 82 51 57
271 197 80 35 40 49
270 197 83 38 43 53
270 198 82 44 49 57
271 199 83 44 52 64
270 196 84 42 41 52
270 196 87 78 44 54
270 199 84 40 50 65
270 199 86 38 50 66
269 193 89 95 44 56
269 194 89 93 46 56
270 193 90 94 48 57
270 195 90 90 44 53
270 193 92 91 49 49
270 193 95 83 42 26
270 194 94 88 49 42
270 196 88 85 48 57
270 196 91 90 47 54
270 199 88 53 47 59
270 199 91 82 53 66
270 196 94 94 50 49
270 198 93 97 48 54
271 198 94 102 48 51
271 200 83 34 48 66
271 200 85 44 56 71
270 201 87 41 53 69
271 202 85 36 51 73
271 203 87 34 49 68
270 200 89 50 45 59
270 201 90 55 46 63
271 202 89 39 49 66
271 202 91 64 47 63
271 201 92 81 43 59
271 201 95 108 49 47
271 202 94 96 50 50
271 204 89 31 53 68
271 205 90 28 49 67
271 206 91 27 45 63
271 204 94 89 49 51
269 215 67 85 46 65
271 215 65 86 43 75
271 214 67 88 47 70
269 215 69 85 40 61
270 214 69 86 39 62
270 215 71 81 41 64
271 215 72 78 50 61
270 216 64 84 49 66
270 216 67 85 42 61
270 219 64 66 40 67
270 219 67 82 40 64
269 216 70 82 45 62
270 216 71 81 50 66
270 219 69 79 39 62
269 220 64 59 44 70
269 222 64 41 41 68
269 223 66 43 44 71
270 221 66 63 46 65
270 220 68 80 49 71
270 220 71 78 43 66
270 223 68 44 38 68
270 223 71 70 42 57
271 216 73 78 50 69
271 217 75 88 38 61
270 218 74 82 36 65
271 219 75 91 37 61
270 221 72 82 43 61
271 220 75 93 35 63
270 223 72 82 43 54
271 223 74 103 40 45
271 221 77 103 31 53
273 192 64 37 57 83
273 192 66 37 56 82
273 195 64 49 57 85
273 195 67 40 53 80
274 194 65 35 56 76
272 193 69 41 62 80
272 193 71 49 61 76
273 195 69 32 52 79
273 195 70 27 50 78
273 197 65 54 53 83
273 198 64 70 52 65
273 198 67 46 52 84
273 197 68 41 55 84
273 197 70 34 51 79
273 199 69 55 51 75
272 193 72 43 53 65
272 195 73 33 53 70
272 196 72 33 54 74
272 196 74 42 57 75
273 198 73 39 57 78
273 198 74 32 56 76
272 196 77 35 48 59
272 198 77 41 56 70
272 198 78 39 51 65
273 200 64 91 48 41
273 201 66 90 52 53
274 200 66 78 48 58
274 203 65 96 41 29
273 200 71 54 53 74
274 200 70 60 51 73
274 202 69 80 46 63
274 202 71 64 55 72
273 204 64 101 47 41
273 206 65 88 42 28
274 204 65 99 44 34
274 206 66 91 46 37
274 205 68 94 38 32
275 205 70 88 41 53
275 207 69 94 51 42
276 207 71 93 49 58
274 200 72 46 53 74
274 200 75 32 52 78
275 203 72 66 53 71
275 203 74 54 54 81
272 200 79 38 58 76
273 202 79 33 60 90
274 202 76 35 51 82
275 203 77 34 57 91
275 204 72 74 55 73
275 204 75 57 58 86
275 207 74 89 50 67
275 205 77 53 61 93
275 205 78 43 63 97
274 206 79 34 63 100
275 207 79 52 61 92
276 206 74 82 49 72
272 200 81 35 54 71
272 201 82 38 61 81
273 203 80 36 66 96
272 203 83 37 64 90
272 203 85 26 52 80
273 205 82 24 63 96
274 204 80 26 63 97
274 206 80 21 62 99
274 207 82 22 60 95
272 205 85 39 65 89
272 206 85 33 62 91
272 206 86 37 62 88
272 206 88 32 54 80
272 207 91 32 46 67
272 207 92 41 47 62
272 207 95 86 46 36
273 209 64 93 38 43
272 211 64 88 42 48
273 211 66 93 46 56
274 211 67 90 44 54
275 208 70 88 45 43
274 210 69 91 50 61
275 210 70 88 54 61
272 212 65 86 43 58
273 212 66 88 42 62
272 214 66 82 43 71
273 213 68 85 45 67
272 214 69 89 40 67
274 212 68 90 44 65
274 212 71 89 53 76
275 208 72 91 53 53
275 208 75 90 53 67
275 211 72 92 50 65
275 208 76 91 53 72
275 208 79 74 62 88
275 210 79 102 43 73
273 214 72 93 42 68
273 215 74 85 40 62
275 212 73 93 57 69
275 213 74 87 51 56
274 215 75 90 50 67
275 214 77 86 49 64
275 215 79 98 46 66
276 209 76 94 53 70
276 210 78 99 45 67
276 212 76 92 55 64
276 212 79 87 43 65
276 214 79 95 48 78
272 217 77 92 24 59
272 219 76 92 36 57
273 219 78 92 36 58
274 216 78 89 49 65
275 217 79 94 48 67
272 220 78 108 40 57
273 221 79 121 42 34
272 223 78 118 35 19
274 208 81 53 58 90
274 208 83 26 56 90
275 210 81 93 48 80
274 211 83 60 54 80
273 208 85 24 58 90
273 209 86 20 58 89
274 210 84 37 56 88
275 211 85 60 55 83
275 212 80 84 45 61
275 212 83 88 52 71
275 215 80 98 44 68
275 215 83 90 50 56
274 212 86 55 54 85
275 213 86 79 49 74
275 215 85 90 47 50
276 215 83 88 54 51
272 209 89 31 57 88
272 208 91 35 48 72
273 210 89 23 56 89
273 210 91 44 62 86
272 208 92 35 45 66
272 208 95 74 40 34
272 211 93 59 53 68
272 211 94 61 44 50
273 212 91 55 57 80
274 213 89 54 52 79
274 214 89 68 46 71
274 214 90 67 49 75
273 212 93 65 51 67
273 213 94 69 52 63
273 214 94 69 51 66
274 215 92 71 48 65
275 217 81 95 48 69
275 218 80 99 42 66
275 219 82 113 44 46
273 221 80 123 42 45
273 223 80 126 42 15
274 220 81 115 30 48
275 220 82 121 40 43
274 223 82 131 36 10
275 221 85 132 44 22
274 223 85 134 35 26
275 222 86 132 43 18
276 217 82 99 48 69
276 216 85 103 43 51
276 217 86 115 29 43
276 219 85 125 42 44
276 220 84 127 45 28
276 221 86 132 43 24
275 217 89 123 44 30
275 216 90 110 42 45
275 219 89 130 41 19
275 219 90 129 43 18
273 217 95 61 49 66
274 217 92 89 42 50
274 218 93 83 44 51
274 219 95 71 37 52
274 220 91 127 46 26
275 222 88 130 45 13
275 222 91 127 41 22
274 220 93 113 48 41
274 220 95 86 34 45
275 222 93 121 38 16
274 223 94 119 36 16
257 192 111 111 33 39
259 193 110 115 38 36
263 192 106 128 37 24
260 193 109 120 36 29
261 194 109 116 40 32
261 195 110 95 34 39
262 194 108 122 39 30
260 196 111 86 41 58
261 198 111 85 43 55
263 197 109 84 48 70
263 199 109 51 50 85
263 199 110 54 48 83
260 202 111 63 54 83
261 203 111 39 54 95
262 201 111 49 50 84
262 202 110 27 51 92
260 205 111 30 55 98
262 204 110 28 55 101
263 205 110 34 60 101
263 207 110 41 64 101
267 193 102 75 52 72
269 192 97 76 47 50
269 193 99 74 51 60
270 193 96 77 38 28
270 195 96 81 38 26
268 192 100 72 50 71
269 193 101 74 54 71
269 195 100 72 50 58
268 195 103 71 54 73
270 197 97 84 44 33
270 197 99 70 42 34
271 199 96 110 49 38
270 199 99 85 40 29
269 197 101 70 43 48
269 196 102 73 53 63
269 198 102 73 43 53
270 197 100 66 41 38
270 199 102 75 47 41
264 193 107 124 47 38
265 194 107 106 46 52
266 194 104 79 42 66
267 195 105 73 48 72
265 196 107 78 46 68
266 196 105 68 46 72
266 196 106 69 46 72
266 198 106 51 55 89
267 199 106 41 59 93
264 198 109 53 44 84
268 198 104 71 52 73
271 201 96 116 52 42
271 201 98 121 54 28
271 203 97 122 50 28
269 200 103 66 45 44
271 200 100 91 44 31
270 201 102 79 45 34
271 203 101 100 43 33
271 203 102 86 43 44
271 205 101 110 42 43
271 205 102 92 43 54
270 206 103 75 46 64
267 200 105 47 61 91
267 201 106 34 62 96
267 202 107 32 61 96
265 200 108 13 54 96
265 202 108 21 55 96
266 203 108 30 55 94
264 204 109 36 61 98
264 205 110 35 60 98
264 206 110 39 63 99
266 207 108 30 40 70
269 200 104 60 48 60
269 202 105 35 48 66
269 203 106 33 49 68
268 205 106 26 47 66
268 206 106 34 52 69
270 206 104 55 45 68
257 192 112 107 33 40
257 195 113 86 42 64
258 195 112 89 44 63
257 197 113 88 44 61
257 198 113 90 45 63
258 197 113 85 40 59
258 198 112 88 47 65
259 199 112 88 44 62
256 200 113 94 39 61
256 203 113 90 51 71
258 201 112 90 44 64
258 203 113 72 50 79
257 205 113 58 53 84
256 207 114 70 54 81
258 204 113 57 55 90
258 206 113 35 57 97
258 207 114 35 60 95
260 207 112 23 63 103
263 208 111 38 62 97
263 213 111 35 43 54
271 209 102 101 43 60
271 212 103 101 51 68
265 209 109 37 48 71
265 209 110 40 53 78
265 210 110 33 48 72
266 209 109 28 42 68
267 210 108 40 48 72
265 212 110 40 51 69
264 215 111 40 38 42
267 212 108 57 47 70
267 214 109 74 47 60
269 209 105 75 42 67
269 208 106 47 45 67
268 211 107 67 47 71
270 209 104 92 50 69
271 211 104 101 48 66
269 212 107 91 46 71
269 214 106 102 43 68
270 212 105 100 48 65
270 214 105 96 40 63
271 215 105 98 39 62
268 214 108 88 51 67
265 218 111 66 30 27
266 216 111 69 39 42
266 218 110 91 34 34
267 219 110 100 36 30
267 220 110 100 37 31
267 222 110 99 37 31
269 218 107 101 47 61
270 217 106 98 46 62
270 218 106 98 46 59
271 219 106 99 50 61
269 217 108 101 41 50
269 218 108 101 44 52
270 221 107 96 48 44
271 223 105 76 61 87
271 223 106 76 52 74
269 220 109 100 37 24
269 222 108 96 36 26
268 223 111 99 41 33
270 222 108 95 39 31
257 208 114 47 56 85
257 210 115 33 42 75
258 208 114 34 60 93
258 210 114 33 49 82
259 211 114 37 45 75
258 212 114 39 48 74
259 213 115 35 47 69
259 215 114 40 48 63
257 213 116 39 55 79
257 214 116 44 58 82
261 208 112 34 67 102
261 210 113 46 67 94
262 210 112 48 66 95
261 212 113 36 42 61
261 215 113 38 39 42
263 212 112 28 40 58
263 214 112 34 37 42
259 216 115 35 37 56
259 218 114 39 35 45
256 217 116 48 55 79
256 218 117 40 46 71
258 220 115 41 38 45
259 222 115 41 37 39
257 220 116 39 36 46
257 223 116 40 41 44
259 223 116 45 38 38
260 216 114 35 38 47
260 218 114 41 36 42
262 217 113 38 39 40
263 218 112 46 34 34
260 220 115 40 39 40
260 222 114 45 38 36
261 223 114 60 26 31
263 221 113 78 43 42
263 223 113 90 43 42
264 217 112 49 36 33
264 221 112 94 44 42
264 223 113 99 41 40
266 222 112 104 39 37
272 204 96 115 53 34
272 204 99 129 53 18
272 207 96 99 52 22
272 207 99 122 57 29
272 208 96 88 46 18
272 208 99 117 61 36
272 211 96 67 42 27
272 211 99 95 56 44
272 209 102 102 45 59
272 210 102 101 48 60
272 213 97 69 43 35
272 212 99 86 54 47
273 215 96 70 49 62
273 215 98 72 43 39
272 213 101 96 60 61
272 214 100 83 54 52
272 214 102 97 61 68
273 216 96 67 50 62
272 216 99 72 45 37
273 218 96 64 49 64
272 218 99 75 48 57
272 216 100 76 48 46
272 216 103 92 56 65
272 219 100 80 50 60
272 219 102 78 56 65
273 221 97 75 39 58
273 222 98 78 35 58
274 221 98 77 40 62
274 222 98 83 34 54
273 220 100 80 49 63
272 221 102 73 55 64
273 223 101 80 48 65
273 223 102 81 48 65
272 218 104 92 57 69
272 220 105 80 56 77
272 223 104 65 63 86
268 225 64 32 45 70
269 224 66 43 40 71
268 227 64 37 46 71
268 227 66 46 43 62
270 224 67 43 34 71
269 227 69 58 41 55
270 224 70 49 36 59
270 227 69 55 44 54
268 228 64 38 40 68
268 229 66 57 42 60
268 230 65 59 43 68
268 231 67 71 34 49
269 228 70 73 28 43
269 230 68 68 35 36
269 231 70 73 40 38
270 229 71 67 34 34
270 225 72 77 46 48
271 224 75 118 40 29
270 227 73 70 35 32
271 227 74 75 31 25
271 225 77 117 38 21
271 227 78 108 33 26
271 228 73 80 39 44
270 230 72 66 37 34
270 231 74 69 40 29
271 228 76 80 33 34
271 229 78 94 30 29
271 230 78 88 36 34
267 233 64 63 52 73
267 236 64 77 44 58
267 238 65 98 44 45
268 233 66 72 49 67
268 234 67 70 41 62
268 233 68 68 47 53
269 233 70 69 40 49
268 235 69 72 40 59
268 236 65 76 41 62
268 237 67 84 46 47
268 239 66 98 37 41
268 237 69 77 45 49
269 237 71 75 40 50
269 238 69 89 43 42
269 239 71 93 41 45
270 232 73 71 37 37
270 233 74 75 32 35
270 234 73 72 41 43
270 235 74 67 41 45
271 232 77 75 46 42
271 233 78 75 41 41
271 235 77 80 47 47
269 238 72 83 40 55
270 237 73 71 42 49
271 236 75 61 38 30
270 239 73 87 35 52
271 239 75 85 40 54
271 236 78 71 46 36
271 239 77 81 42 55
268 240 66 97 28 37
268 242 65 97 45 61
268 243 66 84 61 72
269 240 69 99 25 45
269 241 71 98 17 37
269 243 69 87 51 60
270 242 71 99 21 44
269 244 64 89 60 69
268 245 66 90 53 68
269 246 65 106 36 61
269 247 66 106 42 62
269 245 68 84 57 71
269 245 71 82 72 78
269 246 70 87 45 60
270 245 71 86 72 78
270 241 72 97 27 39
271 241 75 98 29 47
270 242 74 98 22 39
271 243 75 98 34 45
271 243 76 101 29 45
270 244 74 92 47 62
270 246 72 87 58 65
271 247 73 92 34 56
271 244 76 88 56 66
269 249 65 92 76 88
269 250 64 88 91 108
269 250 67 85 70 78
269 248 69 98 59 66
269 249 70 101 77 82
269 250 70 96 81 84
270 250 71 102 86 88
269 252 67 85 84 98
270 253 66 80 100 122
270 255 65 76 107 132
270 255 67 74 100 123
270 253 69 79 83 97
270 254 68 77 94 115
270 254 71 78 73 82
270 248 73 100 28 55
271 248 75 102 27 55
271 250 73 100 89 89
271 251 74 114 108 106
271 253 72 94 86 90
271 254 73 94 86 90
271 255 74 97 92 95
272 225 78 118 36 23
272 227 79 117 40 25
272 231 79 78 35 30
272 236 78 65 40 29
272 239 77 78 41 53
272 224 80 126 39 26
273 225 81 123 37 22
272 226 80 122 36 32
273 227 81 122 35 26
274 224 83 133 38 18
274 225 84 132 40 14
274 225 87 131 32 28
274 227 85 130 38 20
275 227 87 128 40 18
273 228 82 123 41 24
272 230 81 112 35 28
273 230 82 116 37 23
273 229 84 126 39 19
274 228 84 128 39 34
274 229 86 125 35 16
274 230 86 125 34 14
275 224 89 128 40 26
275 225 90 129 31 27
275 227 89 131 38 20
275 224 92 125 36 18
275 224 94 123 40 12
275 226 93 125 43 22
275 227 94 124 40 11
275 229 89 130 39 19
274 231 88 125 35 19
275 230 90 128 39 21
275 228 93 127 44 17
275 229 94 126 40 17
275 231 93 126 38 12
272 232 80 75 44 35
272 233 82 79 41 35
272 234 80 72 35 37
273 234 82 77 41 39
273 232 85 112 39 32
273 234 84 79 37 34
273 235 86 86 33 34
274 234 86 94 25 23
272 236 81 70 41 31
273 236 82 69 39 30
272 238 81 61 30 34
273 238 83 59 35 29
273 237 84 67 44 35
273 239 84 63 36 34
274 238 85 61 43 38
274 239 87 64 39 38
275 233 89 123 39 26
274 234 88 115 35 29
275 235 89 117 40 34
275 232 92 125 35 17
275 232 95 127 41 25
275 235 92 120 35 19
275 235 95 124 35 18
275 236 89 99 41 29
275 237 91 105 39 27
275 239 88 75 46 42
275 239 91 82 34 27
275 236 94 123 38 18
275 238 93 115 42 27
276 237 95 130 38 17
272 240 77 89 40 53
272 241 79 90 40 50
272 242 79 98 21 44
272 244 77 91 55 65
272 245 78 83 75 82
272 246 77 91 74 83
272 247 78 96 48 65
272 250 75 105 85 85
272 249 77 105 56 67
273 249 78 107 59 67
272 251 77 117 106 104
272 252 75 121 118 118
272 252 77 124 122 124
273 253 78 120 119 121
272 255 77 110 105 105
273 255 79 92 84 87
273 241 80 87 40 49
273 241 83 85 37 49
273 242 82 93 33 41
274 243 83 101 25 40
274 241 85 84 26 43
275 240 87 72 42 33
274 243 85 100 21 43
275 243 86 102 25 46
273 245 81 79 65 76
273 246 81 77 79 84
274 245 82 84 76 80
274 247 83 86 64 68
275 245 85 92 63 74
275 245 87 89 50 64
275 247 84 90 63 73
275 247 87 94 75 82
275 241 89 76 31 35
275 242 88 93 42 47
275 240 92 90 34 29
276 240 91 78 37 35
276 243 91 98 31 47
276 240 94 107 45 37
276 242 93 76 25 31
276 243 94 94 31 44
276 245 88 92 60 71
276 245 91 98 50 63
276 246 90 86 80 84
276 244 93 109 21 52
277 244 95 111 17 51
276 247 92 87 93 96
277 246 95 97 58 72
273 249 80 108 51 63
274 248 82 99 31 58
275 249 83 108 41 62
274 250 83 108 70 74
275 248 84 97 29 53
275 248 87 99 28 54
275 251 84 94 72 75
275 251 87 95 70 78
274 252 80 113 110 109
274 253 82 81 80 91
274 255 81 74 72 84
275 254 83 65 79 96
275 253 85 70 91 108
275 254 84 66 85 104
275 254 87 82 106 127
276 251 87 96 71 79
276 248 88 103 35 62
276 248 91 101 40 60
276 250 88 108 47 63
276 250 91 111 39 60
277 248 92 101 34 60
277 248 95 97 75 84
277 251 92 97 60 71
277 251 95 109 51 68
276 252 90 88 97 108
276 254 88 79 107 130
277 254 90 76 106 130
277 252 93 87 92 102
277 254 92 77 106 131
278 253 95 89 111 130
278 254 95 78 108 133
271 224 107 80 45 57
268 224 110 98 39 29
269 225 111 100 40 30
269 227 110 102 46 35
270 225 109 97 42 37
271 226 108 79 43 56
271 228 107 41 54 70
269 231 111 76 48 59
271 229 109 59 54 66
271 230 108 36 55 73
270 230 111 76 43 56
269 232 111 66 49 63
270 232 111 54 49 67
271 234 109 35 45 58
271 234 110 32 49 66
271 236 110 38 45 57
271 239 111 32 41 49
257 224 117 40 41 43
257 226 116 40 38 43
258 224 116 43 42 43
258 227 116 50 33 34
257 229 117 54 34 37
256 230 119 60 27 39
258 228 117 57 30 33
258 230 117 82 38 42
259 231 118 96 25 35
261 225 115 88 46 48
263 224 113 99 47 45
262 226 114 99 38 41
263 227 115 103 38 38
262 229 115 99 26 31
263 230 115 101 37 37
261 228 116 99 34 41
260 231 117 96 32 41
262 231 116 97 30 37
257 233 119 106 36 34
258 232 118 100 30 40
258 234 118 115 36 41
259 235 119 128 34 44
259 236 119 133 23 37
263 232 115 97 36 36
261 233 117 97 26 32
260 234 118 110 24 32
262 233 116 96 37 34
262 235 117 106 28 32
260 236 119 132 32 38
260 239 119 136 34 33
262 236 117 110 33 36
263 237 118 123 31 33
263 238 118 132 35 31
256 235 120 131 30 38
257 236 120 134 19 33
257 238 120 135 17 38
258 239 120 135 22 39
265 225 113 103 37 34
264 226 114 104 40 36
266 225 113 102 35 34
266 227 113 99 37 37
264 229 115 103 39 37
265 230 114 102 42 37
266 229 113 98 38 38
266 229 114 99 39 37
267 231 114 99 43 38
269 229 112 95 41 42
269 230 112 92 42 42
265 232 115 97 37 31
267 232 113 98 42 39
266 234 114 94 43 35
267 235 114 82 40 46
266 237 115 87 47 50
267 238 115 68 45 61
264 237 117 114 40 30
265 238 116 112 42 38
266 239 116 98 43 54
269 232 112 79 49 56
269 234 112 53 51 71
268 235 114 69 47 63
269 236 113 41 56 76
269 237 114 48 61 80
268 239 115 50 45 71
270 237 112 38 52 78
270 238 113 39 54 79
259 240 119 135 29 36
261 240 119 137 32 27
261 242 118 137 31 26
263 241 117 130 42 49
263 242 117 121 39 55
263 243 118 125 37 44
263 244 117 108 35 54
263 245 118 112 39 55
263 247 118 105 40 67
257 240 121 134 28 40
257 243 121 137 25 31
257 242 122 136 23 38
258 242 120 135 26 32
259 243 121 135 35 21
257 245 122 136 35 27
258 245 121 138 32 26
258 244 122 137 35 27
258 247 122 133 34 21
256 245 124 130 23 32
260 246 120 136 38 30
262 248 119 110 35 53
263 251 119 115 37 67
258 248 123 133 41 35
258 251 123 119 11 43
256 248 124 139 36 35
257 249 124 133 42 44
257 251 124 120 4 40
259 255 123 106 50 71
256 252 126 123 10 55
256 254 126 99 76 83
258 252 124 120 19 58
258 254 124 102 90 99
259 255 124 101 62 77
261 249 121 117 9 43
260 251 122 121 19 56
262 251 120 117 40 65
260 252 122 111 46 71
261 253 122 99 89 95
262 252 121 108 70 89
263 253 121 99 73 90
263 255 120 126 8 57
264 240 117 131 36 34
264 242 117 113 40 57
266 241 116 100 38 65
266 243 116 91 43 71
264 245 117 97 43 66
265 247 117 107 39 68
266 244 117 90 49 75
266 246 117 99 47 68
268 240 115 56 45 74
269 241 115 66 48 73
270 240 113 44 52 71
271 241 113 34 43 52
271 243 113 51 37 35
268 242 116 88 48 72
269 245 115 103 39 58
270 244 114 90 42 49
271 245 114 106 30 52
271 247 114 122 13 53
268 247 116 113 17 53
264 249 119 118 13 55
265 250 118 120 34 65
267 248 117 120 8 55
267 251 117 108 84 93
264 252 119 105 80 93
265 255 119 130 14 63
266 253 119 111 43 70
267 254 118 130 14 63
271 248 115 122 29 61
268 248 117 122 17 56
268 251 117 107 86 96
270 249 116 114 54 77
271 254 115 130 45 77
269 252 117 111 40 68
269 254 117 132 29 71
271 253 116 133 24 69
264 252 120 107 87 99
274 224 96 121 47 24
275 225 97 125 46 19
275 226 96 126 44 16
274 226 99 115 44 38
273 224 100 80 43 64
273 225 102 85 49 67
274 224 100 82 38 59
274 227 100 118 42 39
275 228 96 126 34 14
275 228 98 129 38 16
275 230 97 129 40 26
275 231 98 131 40 21
275 229 100 128 40 19
274 229 103 105 39 38
274 230 102 124 47 32
275 231 102 131 40 27
272 225 105 51 60 85
272 226 105 56 54 78
272 226 106 45 58 82
273 228 105 73 49 65
272 229 106 55 51 62
273 231 104 113 42 52
273 230 106 80 49 58
272 230 108 36 54 71
275 232 99 132 38 18
275 233 100 133 39 13
275 233 102 136 37 14
275 235 102 138 47 13
276 233 97 130 44 20
276 234 96 129 39 21
276 234 99 132 45 13
276 234 100 133 43 9
276 236 96 130 34 19
276 236 99 136 43 15
276 239 96 130 42 18
276 239 99 138 41 11
276 236 102 137 47 10
276 238 101 140 45 17
276 239 102 141 47 19
272 233 107 66 43 42
272 235 107 90 49 34
274 232 104 130 40 37
274 234 105 131 45 28
274 235 106 130 44 27
272 235 108 68 44 34
274 237 105 134 44 9
274 236 106 134 47 27
275 239 104 138 39 18
274 239 107 135 44 21
272 237 109 66 43 35
272 237 110 43 41 41
273 239 109 90 43 23
273 239 110 72 42 25
276 240 97 133 50 24
276 240 98 137 46 22
277 242 97 116 32 29
277 243 98 114 20 31
277 241 100 137 45 19
276 241 103 140 46 13
276 242 103 140 50 20
277 243 103 130 41 30
277 244 98 114 14 43
277 247 97 87 96 104
278 247 97 88 87 94
277 244 100 116 8 40
277 244 103 118 15 34
277 246 103 121 16 57
278 246 101 115 42 65
275 241 105 140 44 12
275 241 107 139 45 22
273 240 108 120 48 27
272 241 111 59 39 38
273 242 110 108 52 40
274 240 109 121 56 39
274 243 108 133 64 36
274 243 110 117 56 45
275 244 109 122 45 44
274 245 110 115 27 43
275 247 108 121 24 64
275 246 110 122 5 50
276 241 105 139 45 9
276 242 106 138 46 21
277 244 104 117 10 36
276 245 107 119 0 42
277 247 104 110 50 78
276 247 107 117 35 66
277 249 96 112 19 56
278 248 97 92 93 101
278 250 97 126 17 59
278 251 98 121 31 63
277 249 103 90 70 81
278 248 100 95 103 110
278 250 101 123 12 56
278 253 96 87 109 127
278 253 99 77 98 115
278 254 98 74 104 128
277 253 101 85 104 121
277 254 101 76 110 134
277 255 103 80 115 143
278 254 101 75 109 135
275 248 110 103 70 87
275 250 111 100 66 81
275 253 110 113 59 81
275 255 111 86 116 137
276 248 106 100 88 97
277 249 106 87 86 93
276 250 107 104 37 65
276 248 109 100 88 98
276 251 108 128 19 62
277 253 105 80 80 93
277 252 106 122 37 65
277 255 105 73 113 141
277 254 106 71 99 119
276 253 109 112 71 85
276 255 110 83 119 145
272 244 112 74 31 34
272 246 113 116 13 52
273 247 113 124 19 58
273 248 113 116 52 70
273 250 113 103 85 95
274 248 112 113 49 72
275 249 112 100 95 104
273 253 113 129 44 72
273 255 113 111 78 85
273 254 114 123 63 80
274 254 112 101 83 93
275 255 112 91 113 130
256 141 189 120 104 90
257 140 190 119 104 92
257 142 189 121 104 90
258 141 190 121 105 92
258 143 188 122 103 88
260 140 191 122 106 93
261 141 191 123 107 93
261 143 190 124 107 92
262 143 190 125 107 93
265 143 191 127 110 96
256 150 181 123 92 72
257 150 182 122 94 73
258 151 182 124 92 70
256 145 186 121 99 83
256 147 184 121 97 80
257 146 186 121 98 81
259 145 187 122 100 84
259 146 186 123 99 81
258 144 188 121 102 86
257 148 184 121 96 78
259 148 185 123 98 79
260 146 186 123 100 82
262 147 187 124 102 84
261 145 188 124 104 87
262 145 189 125 107 91
262 146 188 125 104 88
260 148 185 123 98 79
261 148 187 124 100 81
261 150 185 124 97 75
263 148 187 125 101 82
263 150 186 125 99 76
256 155 177 121 81 55
257 155 178 122 80 52
256 153 180 125 85 61
258 152 181 124 90 67
259 152 183 125 93 69
259 154 181 124 86 60
256 157 177 116 77 49
257 157 179 120 77 47
257 158 177 116 76 46
258 157 178 119 75 45
258 159 179 119 66 25
259 156 181 117 79 32
260 152 183 125 94 69
260 155 182 123 85 52
260 156 182 116 79 26
261 157 183 125 73 11
261 158 181 126 73 7
262 157 183 127 72 8
261 152 184 125 94 70
262 152 184 124 95 71
263 153 185 123 92 67
262 155 184 121 82 26
263 155 186 119 81 15
263 157 184 128 71 7
263 158 184 132 66 4
264 144 191 127 110 95
264 146 189 126 107 91
265 146 190 126 108 92
266 146 191 126 109 94
264 149 187 125 101 81
264 149 188 125 102 82
264 150 188 125 101 81
266 149 189 121 101 83
266 150 188 122 99 79
267 151 189 117 98 80
268 149 190 119 100 82
269 150 190 120 103 84
264 153 185 120 91 68
265 152 187 122 94 70
264 155 186 122 84 19
266 153 187 120 91 65
266 152 189 118 96 75
266 154 188 122 92 45
267 154 190 121 71 5
264 157 186 133 69 4
264 158 185 133 62 4
264 159 187 136 69 4
265 157 188 132 69 4
266 156 189 125 66 4
266 157 190 128 66 4
267 157 191 135 72 4
266 159 190 132 61 4
268 153 190 115 78 28
268 154 190 126 71 5
256 165 175 120 49 6
256 170 175 103 92 80
256 173 175 103 95 88
256 161 176 116 51 14
257 162 177 116 51 10
258 160 179 119 71 37
258 162 177 116 50 8
259 162 179 121 53 3
257 164 176 118 57 0
256 167 176 119 53 3
258 164 177 121 59 2
259 164 179 127 59 3
258 166 178 131 63 3
259 166 180 137 59 3
260 163 179 125 55 4
261 161 180 126 64 4
261 162 180 128 67 3
262 160 183 136 73 4
262 163 182 137 73 4
260 164 179 128 59 4
260 165 181 138 64 8
260 166 180 138 58 3
261 166 182 133 62 11
262 164 183 137 69 3
263 160 184 133 67 4
263 162 185 132 67 4
263 165 185 127 53 1
263 167 185 113 71 40
257 168 177 115 76 58
256 171 176 112 108 104
258 168 178 114 80 64
258 170 177 113 109 106
258 171 179 119 117 115
259 169 180 108 95 85
257 172 176 109 102 95
256 175 176 98 47 56
258 172 177 116 111 110
259 172 179 110 96 88
259 174 179 108 40 53
259 175 180 112 51 60
261 168 182 108 88 66
260 170 181 112 112 112
261 170 182 112 110 109
262 169 183 106 99 90
260 172 182 107 83 78
261 173 183 112 50 61
260 174 182 112 42 60
261 175 183 113 45 65
262 168 184 106 88 67
263 169 185 109 105 101
263 171 185 113 102 97
263 172 186 107 50 64
263 175 186 116 56 60
264 161 186 135 71 4
264 163 185 131 64 4
265 163 187 133 62 4
265 162 188 133 69 3
266 161 189 137 75 4
267 160 191 144 70 4
266 162 191 140 57 4
264 164 185 130 54 3
264 165 187 130 57 6
264 166 186 119 66 41
265 167 187 104 92 76
265 167 188 112 89 68
266 164 191 127 69 29
266 167 188 107 89 63
266 167 191 118 117 119
264 169 186 108 105 102
264 171 185 113 99 95
265 171 187 116 98 93
265 170 188 119 108 101
266 169 189 125 120 117
266 170 189 117 93 87
266 171 191 130 86 81
265 172 187 113 62 74
264 175 187 119 70 69
265 173 189 118 58 64
265 175 190 132 85 76
266 173 190 128 76 71
266 175 190 139 92 86
256 177 175 112 61 69
256 179 174 113 65 71
256 181 173 115 80 78
257 181 174 121 74 77
256 183 174 106 80 63
256 184 173 106 83 68
257 184 175 112 80 64
256 187 172 102 65 72
257 187 174 116 78 68
256 188 174 118 74 69
257 189 175 118 70 59
256 191 174 101 69 63
257 176 177 113 47 66
258 176 177 114 51 68
259 176 179 111 58 62
258 179 176 118 57 63
259 179 178 119 55 66
258 180 177 121 60 66
259 180 178 122 63 69
258 182 177 125 74 71
259 182 178 121 72 67
260 177 180 113 61 63
260 178 180 116 57 65
261 179 181 114 51 56
262 178 182 118 56 65
260 181 179 122 74 71
260 180 180 119 55 64
261 180 182 113 48 54
261 183 180 116 79 61
262 181 183 117 55 61
262 182 183 133 84 82
262 176 184 113 42 68
263 177 185 112 39 59
263 179 184 116 50 66
263 181 185 125 55 59
258 184 177 120 81 66
259 184 178 119 74 58
258 187 177 115 68 62
257 189 176 116 71 63
258 188 177 113 67 60
259 188 178 120 72 67
258 191 178 117 70 65
260 184 178 119 74 57
260 186 179 125 81 67
261 185 180 125 79 63
262 184 181 121 75 70
263 184 183 133 91 72
262 186 182 131 89 75
263 187 183 145 110 81
260 189 180 125 75 68
260 190 180 130 89 69
261 191 181 133 97 71
262 188 182 135 103 83
263 189 183 142 110 82
263 190 183 138 101 78
263 190 184 141 108 79
264 177 186 115 51 55
264 179 185 131 71 80
265 178 187 132 79 77
265 177 189 138 86 82
265 179 188 137 84 80
266 177 190 139 92 87
266 179 191 134 96 94
264 181 186 134 77 78
264 183 185 142 109 86
265 183 187 141 111 90
265 182 188 135 89 80
266 180 190 137 86 88
266 183 189 132 96 83
264 184 184 138 106 77
264 185 186 144 116 85
264 186 184 144 106 81
265 186 186 142 113 81
265 184 188 138 111 88
266 184 190 130 106 97
266 186 189 132 113 96
267 186 190 125 115 109
264 188 185 142 110 82
265 189 186 134 106 79
264 190 186 138 109 81
265 191 187 121 98 74
265 191 188 116 103 92
266 188 190 121 114 110
267 189 191 122 117 118
266 190 190 117 115 117
267 191 191 120 116 116
256 128 198 123 94 78
257 130 196 119 98 85
258 128 198 120 93 77
258 130 197 119 97 83
256 133 195 118 102 90
257 134 194 118 103 91
258 134 194 118 103 91
256 132 196 119 101 89
260 128 198 117 92 76
260 130 197 116 95 81
261 130 198 115 95 80
263 129 198 113 92 78
262 131 198 114 96 82
261 133 195 116 100 87
261 135 194 117 102 90
263 135 195 118 103 90
261 133 196 116 100 87
263 133 196 116 101 88
263 128 200 109 86 70
257 136 193 118 104 92
256 138 192 119 104 92
259 136 193 119 104 92
258 138 192 120 105 92
261 137 193 120 105 92
260 138 193 120 105 92
262 136 194 118 104 91
263 137 195 120 106 93
263 139 193 123 108 94
263 140 192 123 108 95
264 129 199 110 90 76
265 131 199 111 96 82
264 133 198 115 100 87
264 134 197 117 102 90
266 132 199 114 99 87
267 133 199 115 102 91
267 134 198 118 105 93
268 135 198 118 105 93
264 129 200 107 87 71
265 129 202 100 79 60
266 129 202 98 79 63
266 130 201 105 89 76
267 130 202 99 84 72
267 128 204 98 70 45
267 128 207 86 57 28
268 131 203 96 80 64
268 128 207 85 58 35
268 130 205 92 69 42
268 130 206 90 68 44
268 132 200 115 101 88
268 132 202 106 94 82
268 134 200 116 104 93
269 134 202 112 101 91
270 135 203 115 102 95
269 132 206 108 96 84
269 134 205 121 107 96
269 135 206 126 111 97
264 137 195 121 106 93
264 139 194 123 108 95
266 139 195 126 111 97
266 136 197 120 106 93
267 136 198 120 107 94
267 139 196 128 113 99
265 141 193 127 111 97
265 142 192 127 111 97
266 141 194 128 112 99
266 143 193 128 112 99
267 140 196 130 115 101
269 136 199 120 107 95
268 139 198 124 110 96
268 143 194 134 118 105
268 140 198 123 110 97
269 141 199 122 110 100
269 143 197 139 124 109
269 142 198 124 112 102
267 138 207 129 115 100
267 142 203 125 110 98
267 141 205 114 102 91
267 142 204 123 108 95
267 143 207 122 87 31
269 136 203 114 99 92
269 139 200 124 111 99
269 139 202 129 114 98
270 137 202 120 106 95
269 137 205 115 103 92
269 136 206 122 108 95
269 138 204 116 100 89
269 140 201 129 115 101
268 141 203 128 113 100
268 143 201 123 108 97
268 140 204 117 105 94
268 143 204 128 111 93
268 128 209 91 67 37
268 128 210 95 72 50
269 129 211 104 90 75
269 130 210 103 95 86
268 128 213 94 80 67
268 128 215 97 88 77
269 131 212 102 90 84
268 131 215 93 84 75
269 133 208 102 89 76
269 133 211 116 101 87
269 135 208 120 107 97
269 134 211 116 101 86
269 132 213 109 98 86
268 133 214 106 93 81
269 134 212 110 96 84
267 135 217 104 89 73
267 134 221 119 78 51
268 128 216 99 90 81
269 128 218 96 88 79
268 130 217 111 97 83
268 131 218 109 95 83
269 129 221 98 88 80
268 130 220 103 91 82
268 130 223 98 91 83
268 132 216 102 90 78
268 132 219 104 90 77
268 135 216 103 93 84
268 132 221 100 86 70
268 133 222 106 78 41
268 135 223 120 59 4
266 139 208 118 104 94
267 138 210 110 99 92
267 137 213 109 96 86
267 138 213 105 91 79
267 139 214 112 91 61
267 140 208 119 103 87
267 140 211 110 92 67
267 143 208 126 78 21
267 143 211 123 62 9
267 140 214 110 79 33
267 142 213 122 61 7
267 143 214 121 60 4
268 137 209 114 101 89
268 136 212 107 96 85
268 136 215 104 93 82
267 137 217 107 79 40
267 138 216 111 78 31
267 138 219 114 64 5
267 137 220 114 63 4
267 138 220 113 61 1
267 141 216 118 62 2
267 141 219 111 61 4
267 140 220 109 61 0
268 139 221 110 58 0
268 141 219 109 61 4
268 142 219 107 57 6
268 140 221 108 55 4
268 141 222 105 55 6
269 142 220 104 53 7
269 142 223 102 53 10
270 143 223 105 56 5
267 144 193 130 114 100
267 149 198 146 78 5
267 151 197 148 74 4
268 144 193 130 114 102
269 144 195 138 122 110
268 147 192 120 105 91
269 146 195 130 115 102
269 144 197 133 121 111
269 144 198 125 115 107
269 146 196 130 116 103
268 147 198 141 115 78
268 148 192 118 103 90
268 148 195 125 104 83
269 149 194 129 109 86
268 150 194 138 98 42
269 151 194 138 98 36
269 148 196 124 102 83
268 150 196 143 82 12
267 146 202 135 89 23
267 144 207 129 71 6
267 148 203 143 71 3
268 144 200 119 103 92
268 144 203 132 109 79
268 147 201 133 83 11
268 145 205 135 72 4
268 146 205 141 67 3
268 148 200 137 84 12
268 148 203 144 70 3
268 151 200 149 75 4
268 151 203 144 71 4
268 148 206 137 66 3
268 150 205 140 67 6
268 151 206 136 67 3
267 153 197 151 69 4
267 154 196 151 70 5
267 154 199 147 69 4
267 157 192 146 79 6
267 159 193 152 79 7
267 157 197 151 70 3
267 158 196 151 69 4
267 158 199 150 72 5
269 153 192 138 75 8
268 153 195 150 73 4
268 155 193 147 76 6
268 155 194 151 73 4
268 153 196 150 72 5
268 156 194 151 73 4
268 158 195 150 71 3
268 156 199 149 72 5
267 153 200 147 69 7
267 159 200 143 68 11
267 159 202 129 73 29
268 152 201 146 72 4
268 153 203 143 71 3
268 154 202 145 71 5
268 152 205 141 66 3
268 153 206 136 68 4
268 155 204 141 69 8
269 154 207 132 62 11
268 157 200 150 74 6
268 157 203 137 68 17
268 156 205 133 72 21
268 157 206 113 80 57
268 159 205 109 105 104
267 144 208 130 66 9
267 144 212 121 56 4
268 144 209 129 57 8
268 145 211 123 58 4
268 146 210 125 56 3
268 145 212 121 58 2
268 145 215 115 54 14
268 146 214 116 51 6
268 148 209 128 61 7
268 149 210 122 57 4
268 151 209 126 65 5
268 151 210 125 63 6
268 148 213 116 60 4
268 148 214 117 58 4
269 149 215 116 59 2
269 150 214 112 58 3
268 144 216 114 57 0
268 144 218 109 56 1
268 146 216 112 56 6
269 147 217 112 58 1
270 146 219 112 56 3
269 145 220 109 61 3
270 144 223 109 56 3
270 146 221 115 62 3
271 146 222 113 55 2
269 148 217 114 60 2
269 150 217 109 55 5
270 148 219 113 54 3
270 151 217 102 67 33
270 148 220 115 54 16
271 149 220 104 56 36
271 149 223 95 84 71
271 151 220 95 93 93
271 151 223 95 96 101
269 153 208 130 63 6
269 153 211 111 60 29
269 154 210 115 67 47
270 155 211 103 85 79
270 152 213 103 59 37
270 153 214 101 71 60
270 155 213 98 91 89
271 155 215 80 81 85
269 157 209 103 106 109
268 158 208 107 110 116
269 159 209 95 100 109
270 156 211 99 96 96
270 156 213 94 93 96
271 156 215 82 86 93
270 159 212 53 70 85
271 159 215 43 63 80
270 152 218 93 88 85
271 153 219 89 95 103
271 154 217 93 100 108
271 155 218 74 85 97
271 153 221 81 89 99
271 154 220 74 84 95
271 155 222 25 54 72
271 156 218 57 70 84
271 158 217 37 59 75
272 151 223 98 99 102
272 154 223 37 56 73
272 158 216 43 60 76
272 158 219 44 59 73
272 157 220 41 59 73
272 157 223 46 60 72
272 159 221 44 60 74
273 159 222 40 59 73
256 143 239 144 59 0
269 128 226 102 89 79
269 130 224 105 93 81
269 130 227 102 85 64
270 130 227 101 83 62
270 128 230 104 92 81
271 129 231 99 84 67
271 131 229 103 77 40
268 132 225 112 78 53
269 132 226 112 81 50
268 134 225 122 59 3
269 135 226 123 60 3
270 133 229 109 65 6
270 134 228 119 60 8
271 135 230 116 54 7
269 136 226 121 62 3
268 138 225 114 61 3
269 138 226 116 55 20
270 139 227 111 61 4
271 136 230 117 52 7
271 139 229 109 62 1
269 140 226 105 59 7
270 140 227 107 63 3
270 142 225 104 51 11
270 142 227 107 62 5
270 140 228 109 65 2
271 142 228 112 64 2
256 134 247 140 60 1
258 135 247 144 65 0
256 131 249 137 70 7
256 128 252 129 95 47
256 128 254 130 89 50
257 129 255 132 66 17
257 131 252 139 61 3
257 131 255 141 62 3
257 133 248 142 64 0
257 132 251 142 58 0
257 135 249 144 63 0
258 135 248 145 62 0
256 132 253 142 57 1
257 133 253 142 59 0
256 135 253 143 62 2
257 134 254 144 63 1
258 133 255 143 66 4
256 138 243 143 61 6
258 139 243 143 57 3
257 136 245 139 50 9
257 138 244 142 56 4
258 137 247 146 63 0
258 139 245 147 63 1
259 138 247 148 64 0
256 141 241 144 62 1
257 141 242 143 61 6
257 143 240 145 61 0
259 140 243 145 58 3
258 143 242 142 58 23
259 140 245 147 62 0
260 142 243 133 68 52
260 141 244 141 62 22
261 140 247 133 70 43
261 142 244 127 76 62
260 143 247 108 108 111
262 143 245 109 111 118
259 137 248 148 63 0
259 136 250 148 59 0
259 138 251 145 62 10
257 136 255 145 65 0
258 137 253 143 61 5
258 139 253 129 81 60
258 138 254 140 67 27
259 139 254 120 90 78
259 141 252 110 108 113
260 137 249 149 62 0
261 139 248 149 60 0
260 140 249 142 67 16
261 141 249 118 89 74
261 141 250 111 99 96
261 142 249 113 104 100
261 142 251 112 113 118
260 141 253 104 110 118
260 142 253 98 104 114
260 143 254 82 76 91
256 147 234 141 64 18
257 145 237 142 57 7
257 145 238 142 60 18
257 146 237 135 62 28
258 146 237 129 69 52
259 146 239 116 96 97
256 149 233 120 82 71
257 149 234 108 91 88
256 151 233 104 101 106
258 149 235 107 104 108
257 148 236 115 88 84
259 149 237 113 102 109
259 150 237 124 93 102
260 149 239 129 85 98
260 150 239 129 54 78
256 152 231 102 102 109
256 154 231 117 100 105
256 158 227 114 94 97
257 157 229 131 90 91
256 158 228 120 91 90
257 159 229 130 92 93
258 157 231 134 74 79
259 158 231 129 65 67
257 153 232 116 95 104
258 152 234 123 92 100
259 153 235 131 34 74
259 155 233 129 51 70
259 152 236 130 54 78
259 157 233 133 66 74
260 153 235 131 26 71
260 153 236 133 38 73
261 152 239 135 37 72
260 155 236 132 42 72
261 154 239 133 45 71
262 155 239 133 44 71
260 157 235 133 54 74
260 158 234 133 71 76
262 159 235 137 78 78
261 158 236 134 61 73
262 157 239 133 57 76
262 159 237 136 71 73
263 159 238 136 70 73
271 145 224 109 54 16
271 152 224 81 85 93
258 145 241 125 83 72
259 146 240 114 95 94
261 144 243 108 100 107
260 147 240 110 101 111
262 145 243 111 111 118
261 145 245 113 112 119
261 145 246 114 110 118
261 147 246 110 51 69
262 145 245 115 108 114
262 147 245 111 60 75
261 148 241 123 87 99
261 149 242 129 43 73
261 151 241 137 41 78
261 148 244 119 39 63
261 148 247 116 36 65
261 151 244 134 53 77
261 151 247 126 52 71
259 145 252 89 55 80
259 146 254 109 45 75
261 144 248 111 116 121
261 144 251 79 74 85
261 147 248 111 42 71
260 147 251 114 43 69
261 144 252 76 72 82
260 146 253 104 46 79
260 147 254 114 48 68
261 149 248 120 57 71
261 148 250 121 62 68
261 150 249 119 64 68
261 150 251 117 80 75
260 149 252 116 69 70
260 149 255 118 82 76
261 151 252 109 78 66
261 152 240 135 41 75
261 153 242 134 39 71
262 153 243 133 49 71
262 154 242 138 65 81
261 152 245 133 57 76
261 153 246 132 66 72
261 155 246 131 78 79
262 155 244 132 75 76
262 156 241 133 64 72
262 156 242 134 69 74
263 157 243 137 82 82
262 158 243 131 75 71
263 159 243 132 80 76
262 157 245 130 81 78
262 158 244 131 77 72
262 158 247 127 71 69
261 153 248 131 80 79
261 153 251 124 88 75
261 154 250 129 81 77
260 152 253 112 84 70
260 152 254 111 84 77
261 153 255 111 85 79
261 154 254 108 68 57
262 155 255 121 84 83
261 156 250 134 86 80
261 158 250 131 80 80
262 158 248 126 69 71
262 159 251 125 75 80
261 158 252 124 76 75
262 157 255 116 78 71
262 158 254 121 80 80
272 129 231 101 86 71
272 132 231 103 74 39
272 134 230 114 55 10
274 135 231 115 60 19
273 129 232 94 77 59
274 129 233 91 71 53
275 129 234 94 78 64
275 130 233 96 65 53
273 133 232 103 66 27
275 133 233 104 62 13
275 135 232 113 60 3
277 129 235 105 83 70
277 131 235 99 84 76
277 128 237 114 76 56
279 129 237 109 70 44
278 130 236 107 81 71
276 133 233 104 63 27
276 134 233 107 62 11
278 133 234 86 74 58
278 134 235 85 66 40
279 133 236 109 76 62
