ply
format ascii 1.0
comment Version 2, Copyright 2017, 8i Labs, Inc.
comment frame_to_world_scale 0.179523
comment frame_to_world_translation -45.2095 7.18301 -54.3561
comment width 1023
element vertex 2071
property float x
property float y
property float z
property uchar red
property uchar green
property uchar blue
end_header
248 275 135 147 64 0
249 273 136 147 68 0
249 274 136 148 67 0
249 275 138 148 65 0
250 273 139 149 73 2
250 273 140 148 69 6
251 273 142 128 73 16
250 275 141 134 80 18
251 275 142 127 92 52
249 276 137 148 66 0
249 277 139 145 63 6
249 278 137 145 59 12
249 279 139 126 87 52
249 279 140 114 92 68
250 276 142 123 93 58
251 277 143 121 116 113
250 278 142 117 108 99
248 280 136 137 65 11
249 280 139 117 95 73
248 283 136 131 113 94
249 283 139 119 112 109
249 282 140 114 108 108
250 281 141 115 110 110
250 282 141 116 118 126
250 283 142 116 122 132
248 285 137 128 118 114
249 285 138 112 109 112
248 287 138 118 121 129
249 285 140 119 122 132
250 284 141 121 123 132
250 285 142 119 117 121
250 286 142 120 115 118
251 273 144 108 92 78
251 276 145 113 120 129
251 279 144 112 119 131
252 272 145 91 95 104
252 273 146 93 104 117
252 275 145 107 112 119
252 273 148 91 110 130
253 272 150 88 111 134
252 274 149 95 115 136
253 274 151 92 114 136
252 277 145 109 120 135
252 278 146 114 121 131
252 276 149 101 112 126
253 276 150 99 112 127
252 279 148 114 117 122
252 279 151 74 96 118
253 275 152 95 113 134
254 273 153 79 105 129
254 274 153 86 108 131
254 275 155 81 103 125
255 272 157 85 105 126
255 272 159 93 110 128
254 275 156 85 106 126
254 275 159 94 112 132
253 277 153 101 114 129
253 278 152 87 104 122
253 278 155 125 129 138
253 277 156 116 123 134
253 279 157 135 135 141
254 276 156 86 105 124
254 276 159 95 113 132
250 280 144 116 121 130
251 281 145 105 106 110
250 283 144 103 107 114
251 282 147 99 110 124
251 283 150 109 118 131
251 284 145 100 110 123
251 285 147 98 113 131
251 286 145 92 109 128
251 287 147 123 128 138
251 284 150 117 122 132
250 287 149 130 130 136
250 287 150 133 133 137
252 280 147 115 116 122
252 281 148 93 107 123
252 281 151 97 110 125
252 282 151 116 122 132
251 285 152 131 131 135
251 287 152 136 134 138
252 280 153 107 114 127
252 281 155 131 131 136
252 282 153 135 135 140
252 283 154 140 137 141
253 281 157 135 136 142
252 282 156 138 137 142
253 283 157 136 136 142
252 284 152 137 135 139
252 285 155 140 139 144
252 284 157 137 136 141
252 285 159 116 105 111
252 286 157 130 128 133
252 287 158 91 75 83
255 267 166 136 136 141
255 269 163 117 123 133
255 270 162 118 127 139
255 268 165 134 135 142
255 269 166 136 138 146
255 271 165 111 123 139
255 266 168 136 137 143
255 268 169 141 141 147
255 269 170 139 140 146
255 271 169 139 140 148
255 268 172 142 142 148
255 268 175 145 144 150
255 271 172 134 135 141
255 271 175 147 146 151
255 269 177 146 146 152
255 270 176 146 145 151
255 270 179 132 134 142
255 269 180 137 138 145
255 271 180 137 138 145
255 271 187 136 138 145
255 271 190 131 134 143
255 273 161 100 117 135
254 274 160 93 112 132
255 274 161 98 115 135
254 273 164 104 121 141
255 273 165 99 118 140
254 274 164 104 122 142
254 274 167 102 122 143
254 276 160 99 116 136
254 276 163 91 114 136
254 279 160 131 135 144
254 279 163 107 119 134
254 276 166 102 121 142
254 278 165 100 117 137
254 279 166 90 108 127
255 273 168 105 121 139
255 272 171 136 138 146
254 275 168 101 121 142
254 275 171 103 120 139
255 273 172 134 138 149
255 272 175 145 145 150
254 275 172 105 121 140
254 275 175 113 125 140
254 276 170 106 124 144
254 278 169 98 118 137
254 279 170 89 111 132
254 277 172 106 124 143
254 277 175 101 118 138
254 278 174 102 121 141
253 280 161 134 135 142
253 283 160 118 115 122
253 283 163 81 75 83
254 281 163 111 108 115
253 283 165 71 89 105
254 280 164 111 116 127
254 280 167 77 98 119
254 282 166 73 92 112
253 284 162 81 69 78
252 287 161 75 84 95
253 286 163 79 101 120
253 285 164 83 104 123
253 285 167 79 106 132
253 286 166 73 102 129
253 281 170 79 104 128
253 283 169 72 103 129
254 280 168 78 102 124
254 280 171 76 103 127
253 281 173 79 104 127
254 280 172 83 107 129
254 281 174 87 110 133
254 282 175 88 111 133
253 285 168 78 108 134
253 285 171 80 114 143
253 286 170 77 113 143
253 284 173 89 117 143
253 285 175 83 112 138
253 286 174 68 103 133
254 284 175 96 119 142
255 272 178 138 139 145
254 274 177 133 136 143
255 274 178 135 136 142
255 272 181 142 143 150
255 273 182 138 140 147
255 275 181 134 136 143
254 276 176 114 125 140
254 276 179 124 130 141
254 278 177 101 118 137
254 279 178 100 118 137
255 276 181 138 140 148
255 276 182 140 141 148
254 278 181 114 125 140
254 279 182 93 110 129
255 273 185 132 136 145
254 275 185 132 135 143
254 275 186 128 131 139
255 272 189 128 132 140
255 273 190 127 130 138
255 274 189 130 132 139
255 274 190 130 132 139
254 277 185 119 125 135
254 276 187 129 132 140
254 279 184 95 111 129
254 279 187 111 124 140
254 276 190 137 140 149
254 278 189 133 138 148
254 279 190 112 123 138
254 281 177 97 117 138
254 282 176 87 110 133
254 282 179 94 114 135
253 282 183 100 119 140
254 281 180 104 120 138
254 281 183 95 114 134
254 282 182 99 116 135
253 286 176 80 105 127
253 286 179 94 108 124
254 285 176 89 114 137
254 285 179 84 103 122
253 284 182 85 108 131
253 286 181 105 121 139
253 287 182 101 122 143
253 283 186 79 109 136
254 280 186 82 106 129
254 282 185 89 114 138
254 283 186 80 110 137
253 283 188 73 104 131
253 283 191 89 110 132
254 280 190 88 108 129
254 282 189 86 111 136
253 285 185 81 109 134
253 286 184 87 113 138
253 286 187 79 107 132
253 285 188 75 103 127
253 285 191 98 115 134
253 287 189 82 106 129
253 286 190 90 109 129
239 303 128 109 121 137
239 305 129 113 124 139
239 307 128 99 114 132
239 308 128 101 117 135
239 309 130 106 122 140
239 311 129 102 118 138
235 318 128 97 115 134
236 315 128 102 119 138
237 315 130 101 118 136
238 312 130 104 120 138
239 313 131 105 122 140
238 315 131 105 121 140
238 315 132 100 119 139
239 315 134 93 115 137
237 317 128 90 111 134
236 318 128 90 111 133
237 319 129 96 114 134
238 316 130 105 121 138
237 319 133 97 116 136
239 316 133 87 111 134
239 317 135 94 113 134
238 318 135 90 113 136
239 317 136 105 114 129
242 288 128 115 99 82
243 288 130 113 96 77
242 290 129 103 90 79
243 290 130 112 98 85
241 294 128 124 108 94
242 293 128 122 107 95
243 293 130 132 116 101
242 294 130 129 113 99
243 293 132 127 111 98
244 288 132 113 101 87
245 288 134 103 90 80
244 291 133 128 111 96
246 288 134 106 92 79
244 292 132 132 114 100
245 293 133 125 108 92
244 294 133 124 108 91
245 294 135 118 122 130
246 294 135 119 125 135
247 288 137 113 112 115
247 290 136 119 120 124
246 292 136 116 120 129
247 293 137 103 109 119
246 295 136 114 119 128
247 294 139 104 104 108
247 295 141 110 120 134
241 297 128 119 105 92
240 299 129 121 114 111
242 296 130 131 113 95
242 298 130 117 104 91
242 298 132 114 107 105
243 299 133 114 119 128
241 300 129 113 106 104
240 302 128 111 121 135
241 302 130 115 114 118
242 301 131 111 111 115
243 300 133 114 122 134
242 303 132 113 122 135
243 302 135 109 116 127
244 297 132 117 104 93
245 297 134 116 124 136
244 299 134 112 120 132
244 300 135 109 113 121
245 298 136 114 114 118
246 297 136 114 115 118
247 296 138 113 112 116
246 298 137 120 119 123
246 299 139 119 126 137
247 296 142 124 129 138
246 299 140 131 135 145
246 299 142 136 137 143
244 300 136 106 109 115
245 301 137 108 116 129
244 302 137 104 115 130
245 302 139 123 129 139
246 301 139 121 127 138
246 300 140 131 134 143
246 300 143 134 135 141
246 302 141 122 126 136
246 303 143 129 129 134
248 289 138 121 126 135
248 290 139 113 114 120
249 289 140 122 119 122
249 290 140 95 94 97
249 290 143 103 110 122
250 288 143 99 99 109
248 293 139 98 98 101
249 292 141 105 110 120
249 292 143 121 127 137
248 294 142 113 122 135
247 296 144 125 128 135
247 298 145 131 132 137
247 299 146 139 138 141
247 300 144 135 135 141
247 300 147 135 134 138
246 303 145 130 126 129
247 302 146 130 128 131
247 301 148 97 93 101
247 302 150 86 105 123
249 290 145 126 129 137
250 288 144 99 108 121
250 288 147 130 133 141
250 290 146 129 131 138
250 288 149 136 135 139
250 288 151 140 138 141
250 290 148 129 129 134
250 290 151 142 140 143
249 292 144 135 136 143
249 292 147 133 132 137
248 295 144 125 128 136
248 295 147 133 133 137
249 294 148 137 136 140
249 294 151 137 131 134
250 293 148 133 132 137
250 293 151 134 131 135
251 288 153 139 138 142
251 289 154 141 138 142
251 290 153 142 141 145
251 291 154 125 122 126
250 292 153 135 133 137
251 292 154 111 108 114
250 294 153 108 101 106
250 295 154 62 70 85
251 293 156 71 89 107
251 293 159 83 112 137
251 295 157 81 113 141
251 295 158 73 107 136
252 288 156 125 122 124
252 288 159 73 63 75
252 291 156 82 79 91
252 291 159 84 106 126
248 297 145 130 130 136
248 298 147 139 138 142
249 297 148 133 131 133
249 297 151 98 85 91
249 298 148 128 123 125
249 299 150 76 62 78
248 300 150 79 66 86
248 302 149 73 71 88
249 297 152 79 60 73
249 299 153 89 108 126
250 296 153 78 69 80
250 297 155 81 110 134
250 296 156 82 112 137
250 296 159 74 109 138
250 299 157 80 113 141
248 300 152 77 100 120
248 301 154 77 111 139
249 301 155 77 111 139
248 302 154 79 113 141
249 300 157 78 110 138
249 301 158 74 104 133
249 302 156 74 108 137
249 303 158 75 109 138
240 305 130 120 127 140
240 306 131 112 125 141
241 304 132 115 123 135
242 304 132 111 121 136
243 304 134 109 117 130
242 306 133 107 120 135
243 306 135 105 118 135
240 309 130 106 122 140
241 308 133 101 118 137
240 311 133 96 116 137
241 311 135 95 114 135
242 309 134 106 120 138
242 311 135 103 117 136
243 306 137 110 119 131
242 309 136 128 132 142
243 309 137 133 134 142
242 310 136 131 134 143
242 311 138 142 141 146
243 309 140 134 134 140
244 304 136 101 114 129
244 305 139 138 138 145
244 307 138 127 131 140
245 305 141 144 142 145
244 307 140 131 133 140
245 306 142 137 135 138
246 304 143 138 135 139
244 308 141 126 126 130
244 309 142 107 97 101
244 310 142 92 78 87
240 312 133 96 116 137
241 312 135 99 117 136
240 315 134 93 115 137
241 313 137 129 131 139
241 314 137 130 133 140
241 315 139 84 91 103
242 312 139 138 137 142
242 313 140 90 94 103
243 312 142 80 91 105
242 314 141 88 106 124
242 315 142 86 114 139
240 316 136 122 128 140
240 317 138 74 77 90
241 317 139 83 95 112
240 319 138 72 91 110
241 317 141 79 110 135
241 318 140 79 106 128
241 319 142 80 114 142
242 317 142 75 108 137
245 306 144 101 88 89
245 307 146 75 82 93
246 305 145 102 92 92
247 304 147 79 77 83
246 304 148 67 80 97
247 305 148 83 108 130
247 305 151 81 113 141
246 306 150 78 114 142
247 307 151 78 113 142
245 309 144 84 84 91
245 309 147 88 112 135
244 310 146 71 105 133
245 311 147 76 114 144
245 310 149 83 116 144
245 311 151 73 103 131
246 308 151 79 114 142
246 311 151 76 106 134
247 306 153 74 107 136
246 308 152 74 109 139
247 309 153 74 110 140
246 310 152 76 107 136
246 310 154 77 112 141
247 311 155 78 113 141
247 310 156 76 111 140
247 310 159 80 103 123
243 314 144 81 110 136
243 315 146 78 111 138
242 317 145 70 106 135
243 317 146 76 111 139
242 318 146 76 113 143
243 319 147 75 107 138
244 312 144 86 114 138
244 312 147 76 113 143
244 314 147 76 112 141
245 312 148 76 111 141
245 312 151 70 102 132
244 315 148 81 115 143
245 314 151 77 112 141
244 316 149 79 109 137
244 317 150 79 110 137
244 318 149 70 102 131
244 319 151 75 107 135
245 315 153 74 109 138
246 312 154 77 112 141
247 313 155 68 100 127
246 314 155 68 100 126
247 313 156 76 98 121
247 313 159 80 66 76
247 314 157 71 67 88
247 314 159 92 73 73
245 317 152 76 110 137
245 318 153 79 106 129
245 319 154 75 89 106
246 317 154 77 103 126
246 316 157 91 75 76
246 317 158 125 118 117
246 318 157 121 117 118
246 319 158 118 121 129
248 305 153 75 109 137
248 306 154 77 111 140
248 305 156 79 114 143
249 304 158 73 106 135
248 307 156 73 105 136
248 307 159 75 107 136
248 308 158 72 107 137
251 292 160 82 111 135
251 292 163 76 110 138
251 294 160 80 110 136
251 294 162 77 109 136
251 293 164 79 112 140
251 294 165 77 109 136
251 295 166 76 109 137
252 289 161 85 105 123
252 290 160 75 98 119
252 290 163 80 113 140
252 289 164 80 114 142
252 289 167 74 109 137
252 290 164 78 111 139
252 290 167 76 108 137
252 292 166 71 104 133
251 294 168 75 112 140
253 288 168 74 109 139
253 288 170 78 113 143
252 290 169 79 114 143
252 291 170 75 111 139
253 288 173 70 105 134
253 288 175 82 101 120
253 290 172 73 103 128
253 290 174 84 90 100
252 292 169 74 110 140
252 293 170 75 108 135
252 294 171 74 89 107
253 292 172 71 85 104
253 292 175 98 91 92
253 294 172 86 81 85
253 295 174 118 119 124
250 297 161 72 107 137
251 296 163 73 107 135
250 298 162 76 111 140
250 297 164 71 105 135
251 296 166 74 108 137
250 298 165 75 111 140
251 298 166 77 109 136
249 301 161 78 111 139
249 303 161 75 108 137
250 300 161 78 109 137
250 301 162 78 112 139
250 300 165 77 106 131
251 300 166 87 101 118
250 302 165 81 94 111
250 303 167 92 69 71
251 297 168 81 106 129
251 299 169 80 61 68
251 300 170 112 99 97
251 302 169 118 108 108
251 303 170 129 127 129
251 301 173 125 127 135
251 302 173 120 125 135
251 303 174 113 120 132
252 296 171 89 84 88
252 298 171 110 99 95
252 297 172 117 111 109
253 296 174 118 121 129
252 298 173 127 126 130
252 299 174 120 126 136
252 300 171 128 121 120
252 300 175 110 120 134
253 289 177 105 103 108
253 290 176 93 88 92
253 290 179 97 115 134
253 289 180 100 118 137
253 289 183 86 113 139
252 291 183 79 109 135
253 292 176 111 112 118
253 292 179 84 110 135
253 295 176 99 116 134
253 295 178 81 111 138
253 293 180 86 113 139
252 293 183 83 108 133
252 295 181 85 111 135
252 295 183 99 115 134
251 295 191 97 104 114
253 289 184 82 111 137
253 288 186 81 109 134
252 291 185 91 111 132
252 291 187 109 120 134
252 288 190 93 112 131
252 290 189 107 121 137
252 291 190 111 123 140
252 293 185 102 117 135
252 294 184 103 118 136
252 294 187 121 130 145
252 293 188 122 130 143
252 293 191 102 114 129
252 294 190 105 116 129
251 299 183 123 130 143
251 301 179 112 123 138
251 302 178 114 124 138
251 300 181 121 129 141
251 301 182 123 130 142
251 303 181 117 123 134
252 297 176 86 109 131
253 297 177 86 111 135
253 296 178 83 112 138
252 298 178 88 112 135
252 296 181 86 110 134
252 297 182 102 117 135
252 299 181 115 125 140
252 300 176 113 124 138
252 300 179 104 118 136
251 297 184 119 127 140
251 297 187 110 123 139
251 298 186 103 117 134
251 296 189 112 124 140
251 297 190 103 111 123
251 299 189 102 112 126
251 300 184 117 127 141
251 300 187 112 124 140
251 302 184 106 121 139
250 303 186 108 122 140
251 303 187 107 117 130
250 300 191 128 120 115
251 301 190 117 115 116
251 302 188 109 117 129
250 303 191 131 118 108
252 297 185 115 125 139
247 312 160 81 64 71
247 315 161 136 133 135
247 317 161 133 137 146
247 318 160 126 131 141
247 318 163 106 120 138
247 318 166 118 125 136
247 317 171 123 127 135
247 318 170 129 131 138
247 318 173 107 119 134
247 319 174 100 116 134
249 304 161 77 110 138
249 305 163 76 94 113
249 306 161 85 111 135
249 307 163 75 78 88
250 304 165 82 64 78
250 305 166 109 93 89
250 307 164 101 94 96
250 307 167 135 133 135
249 308 161 69 86 105
249 309 163 108 93 91
248 310 162 93 70 72
249 311 162 117 104 101
249 309 165 127 121 121
249 310 164 133 124 123
249 310 167 134 134 140
250 305 169 142 139 142
250 305 171 129 132 139
250 306 168 142 140 143
251 306 169 142 140 144
250 305 172 118 124 135
250 305 174 122 127 138
250 306 173 120 127 138
250 307 174 124 131 143
249 311 168 116 122 133
249 311 171 117 123 133
250 308 170 114 121 133
249 309 172 115 123 135
249 310 173 119 126 137
249 311 174 135 138 146
250 309 173 116 124 136
248 312 160 83 64 71
248 312 163 135 130 132
248 314 162 135 133 136
248 313 164 130 133 139
249 312 166 135 137 144
248 314 165 121 129 141
248 315 166 111 120 133
248 317 163 109 122 139
248 317 165 108 120 134
248 318 164 108 121 137
249 312 169 113 120 132
249 313 170 117 123 134
248 315 169 121 126 135
249 314 170 129 131 139
249 313 173 140 140 147
248 314 172 134 134 140
248 314 174 127 132 142
248 316 168 117 123 133
248 316 171 126 128 135
248 318 171 124 129 138
248 316 174 105 118 133
248 318 174 98 113 130
247 315 191 109 96 92
247 319 189 85 98 113
250 305 176 123 129 140
250 305 179 123 128 137
250 306 176 127 132 143
250 306 179 113 122 134
250 305 181 111 121 134
250 305 182 92 111 130
250 307 180 94 111 130
250 307 183 84 110 134
249 310 176 109 119 132
249 310 179 62 93 119
250 308 178 98 113 130
249 311 180 82 106 129
250 308 181 91 113 135
250 309 182 87 111 134
250 311 181 88 111 134
250 304 185 87 109 132
250 304 187 94 108 124
251 305 186 77 99 120
250 307 185 84 108 130
249 307 188 100 113 130
249 307 191 129 125 126
251 304 188 103 109 119
250 306 188 107 116 129
249 309 184 84 108 131
249 310 185 95 111 128
249 311 186 122 124 129
250 308 186 87 108 130
249 308 188 95 113 133
249 308 191 115 118 126
249 311 188 123 123 129
249 310 191 99 115 132
249 312 176 99 111 126
249 312 179 83 105 126
248 315 177 80 104 128
248 315 179 83 105 127
249 312 180 89 110 131
249 312 183 110 122 137
249 315 180 94 113 133
249 315 183 71 101 127
248 316 178 87 110 132
248 318 177 93 113 134
248 319 178 116 123 134
248 317 181 85 110 133
249 316 182 83 108 131
248 319 181 97 109 122
249 312 184 127 127 133
249 312 187 140 128 118
249 315 184 70 102 128
249 314 187 117 118 121
249 312 189 132 123 117
248 313 190 131 115 101
248 315 188 95 109 124
248 315 190 115 113 113
248 317 185 77 106 132
248 317 186 80 108 132
248 319 184 100 113 129
248 319 187 102 110 120
248 316 190 96 106 119
248 319 188 93 104 117
222 315 251 127 122 119
223 312 252 99 109 122
222 315 252 120 118 121
223 315 253 105 110 118
223 315 254 99 106 115
222 316 250 141 127 115
223 316 251 132 123 116
223 319 249 144 123 102
223 318 250 148 127 107
222 317 252 134 125 120
222 317 255 106 111 121
222 318 254 124 120 120
255 267 192 133 133 139
255 267 197 129 129 135
255 268 193 127 130 138
255 269 194 122 128 138
255 271 193 130 131 138
255 271 195 129 130 137
254 269 199 133 134 141
254 271 196 128 130 137
254 270 198 131 133 141
255 265 201 127 128 134
255 267 202 121 123 129
255 264 207 108 104 106
255 266 205 107 109 114
254 267 206 106 108 113
255 268 200 122 124 131
254 269 202 116 117 122
255 269 203 112 113 117
255 270 201 122 123 127
253 269 205 110 110 113
253 270 204 110 109 113
252 271 206 114 113 116
254 268 205 109 110 113
254 268 207 102 104 108
247 263 223 80 77 83
246 264 223 84 92 104
247 265 222 88 82 93
247 267 221 82 67 73
247 266 222 89 84 95
247 270 216 88 99 112
246 271 219 106 112 121
245 268 222 92 101 112
245 271 221 92 96 105
245 270 223 82 88 100
246 269 221 94 101 111
246 270 220 96 105 116
253 258 215 105 104 108
255 257 213 104 103 106
255 256 215 102 102 106
255 258 213 99 99 103
254 259 214 99 99 101
255 262 209 104 104 107
254 263 210 106 105 106
253 261 213 104 104 107
253 261 214 106 106 109
252 262 214 113 113 117
254 260 212 97 97 100
254 260 214 101 101 104
251 259 219 107 107 111
249 259 223 106 98 91
250 256 222 124 111 100
250 258 221 119 112 107
251 259 220 110 108 110
249 263 219 81 83 90
250 261 219 87 90 96
251 262 216 113 116 122
250 262 219 86 89 97
249 261 220 76 70 70
248 261 223 80 65 68
248 263 221 73 43 46
248 262 223 79 66 72
252 257 217 121 119 122
252 257 218 123 121 124
252 258 216 116 115 119
253 259 216 109 110 114
254 256 217 107 107 109
252 260 217 110 112 116
250 264 215 125 126 131
251 265 215 120 123 130
250 267 214 100 106 113
249 271 211 111 115 122
251 270 209 112 114 118
251 270 210 112 113 119
249 269 214 89 97 108
249 271 212 102 108 117
248 271 215 85 96 109
251 268 212 104 108 115
250 269 214 93 100 109
253 265 210 104 104 106
252 267 211 109 111 115
254 265 208 105 105 107
254 264 210 106 104 106
254 266 209 108 108 112
252 264 213 115 115 119
253 265 212 112 112 116
252 267 212 105 108 114
253 268 209 104 105 109
252 269 211 109 112 118
248 264 219 77 73 80
249 265 219 77 84 93
249 267 217 86 95 105
249 266 218 83 91 100
251 264 216 119 123 131
250 267 216 98 103 112
248 266 220 85 62 69
249 268 216 88 96 107
248 270 217 87 100 114
247 286 207 121 119 120
255 273 192 134 136 144
255 272 194 131 133 140
254 274 193 133 137 146
254 274 194 131 135 145
255 274 195 132 135 144
254 272 197 130 132 140
255 273 196 134 136 144
254 274 196 130 134 142
254 274 199 121 124 131
253 279 194 125 131 140
254 277 193 127 132 142
254 278 192 125 131 142
254 279 194 127 131 141
253 277 198 114 118 125
253 279 197 116 120 127
253 279 199 117 118 123
254 276 198 122 126 134
251 274 206 109 110 113
251 279 201 118 119 125
251 279 203 116 117 123
251 276 205 108 111 117
250 277 206 107 109 115
250 279 204 118 118 122
250 278 206 113 114 120
253 273 201 112 115 121
253 274 200 115 117 124
252 275 202 116 116 120
254 272 200 120 122 129
252 272 204 110 110 113
252 272 206 114 114 117
252 275 204 113 114 118
253 276 200 116 119 125
252 276 203 116 116 120
252 279 200 119 119 123
251 281 199 115 116 121
251 284 198 94 105 117
251 286 197 95 109 125
251 286 199 98 109 123
253 281 192 101 115 131
253 281 195 106 114 124
253 283 193 97 112 129
253 283 195 95 106 120
253 281 196 108 113 121
253 280 198 117 118 123
253 283 196 97 107 120
252 285 192 95 113 131
252 285 194 93 106 121
252 286 193 91 107 125
252 287 194 89 105 121
252 285 197 92 104 119
252 287 196 99 111 126
251 281 201 111 112 117
251 281 202 112 114 119
251 282 200 114 116 122
250 283 202 122 122 127
249 280 206 120 121 125
249 282 204 124 124 129
248 282 207 100 106 114
250 280 204 118 119 123
250 282 204 122 123 128
248 287 203 91 101 112
250 284 200 114 119 127
250 284 202 118 120 127
250 287 200 98 108 120
248 285 205 83 94 106
248 285 206 93 100 109
249 286 204 90 99 110
252 281 200 114 115 119
247 275 213 91 96 104
247 275 215 126 119 116
247 279 211 108 112 119
247 277 213 118 114 114
247 276 214 119 114 113
246 279 213 142 132 124
246 278 215 138 119 99
243 275 223 100 90 90
243 277 222 117 109 104
243 279 221 127 114 101
243 278 223 124 112 102
245 275 219 89 71 65
247 273 217 130 126 126
247 272 218 117 117 121
247 274 216 131 125 123
245 272 220 96 98 104
244 272 223 87 87 91
244 275 220 86 85 88
244 274 222 96 94 95
245 276 217 108 83 57
245 276 219 89 71 64
245 279 217 104 33 45
245 278 218 96 35 39
246 277 217 111 87 58
244 277 220 113 106 100
243 287 215 115 34 50
247 280 210 104 111 121
247 282 209 102 107 114
246 283 210 128 120 114
245 281 214 111 48 52
245 282 215 114 19 55
246 281 212 139 126 112
246 282 213 116 75 57
245 287 211 119 29 63
247 285 208 120 118 118
246 286 208 131 120 113
247 287 208 134 120 111
245 284 212 115 40 40
244 285 214 113 18 46
244 287 213 117 19 56
244 286 214 115 10 51
243 281 219 114 100 81
241 281 223 137 119 102
243 280 220 129 114 99
242 280 223 132 116 100
242 283 221 126 109 90
242 282 223 137 120 103
243 284 219 109 91 68
243 287 216 111 24 43
242 287 219 127 107 84
241 284 222 139 121 103
241 287 220 147 125 103
241 286 222 142 123 103
242 285 220 131 111 87
242 287 220 145 124 101
245 280 217 108 24 56
244 281 219 104 85 71
244 283 217 101 22 40
244 284 217 101 17 35
249 272 211 111 114 121
248 275 211 89 99 111
250 272 209 119 118 122
251 273 209 118 117 121
250 274 209 115 117 123
248 272 213 87 97 108
248 272 214 85 96 108
248 275 212 89 99 112
249 277 209 100 106 115
249 276 210 96 102 111
249 278 208 104 108 116
250 276 208 107 111 117
248 281 208 95 104 116
239 259 238 92 99 108
238 260 239 86 94 105
239 261 239 80 90 102
238 262 239 81 89 100
239 265 235 110 94 77
237 265 239 118 109 102
237 267 239 108 90 72
239 265 236 113 99 82
238 266 237 101 81 60
238 266 238 110 95 80
239 269 234 97 24 49
238 270 235 96 31 48
237 269 237 94 37 44
237 269 238 93 33 36
236 270 239 97 26 48
238 268 236 97 38 44
238 270 236 95 39 49
231 257 251 107 105 106
231 259 251 112 110 112
229 259 253 102 105 110
229 259 254 98 101 107
231 256 252 97 97 100
230 258 252 106 106 109
230 260 251 116 114 116
231 261 251 110 110 114
230 263 250 84 91 100
229 260 253 96 101 107
228 261 254 102 103 108
229 262 253 104 106 111
228 263 254 107 104 104
230 263 252 92 96 103
231 269 247 131 115 99
227 266 255 129 114 99
227 268 254 132 115 98
227 271 252 134 116 96
227 270 254 140 121 104
229 267 251 112 105 102
231 265 249 89 95 104
231 264 250 87 94 103
231 267 248 102 102 107
228 265 253 123 113 107
228 264 254 116 108 103
228 267 253 126 110 97
228 267 254 131 115 101
229 269 251 122 109 98
229 271 250 135 118 101
231 268 248 112 105 101
230 271 248 132 114 93
228 268 253 126 110 95
228 271 252 128 109 90
235 257 245 110 107 108
235 257 246 105 102 103
235 259 245 108 106 109
235 258 246 106 103 103
234 262 243 95 100 108
235 263 243 96 101 111
233 261 247 106 106 109
232 263 246 87 92 99
234 260 244 93 96 101
234 260 246 105 104 107
236 256 243 110 109 111
237 257 243 106 107 111
236 259 243 93 96 102
238 257 240 90 96 105
238 256 242 101 103 107
238 259 241 93 98 107
236 258 244 111 110 112
237 261 241 96 102 111
236 263 241 84 92 102
236 263 242 89 96 106
233 257 248 112 110 112
233 256 250 112 110 112
233 259 248 113 109 109
234 257 248 112 111 113
232 260 250 116 113 113
234 264 243 96 102 111
235 265 243 99 100 103
235 266 242 120 109 101
233 265 244 98 102 109
232 265 247 97 102 111
233 267 245 117 110 107
234 264 244 97 101 110
235 268 241 110 91 71
234 269 242 103 77 56
235 270 241 97 36 46
234 271 242 104 39 56
233 269 244 127 111 95
232 269 247 129 113 95
233 271 244 102 54 49
232 271 247 118 93 75
236 265 240 121 112 106
236 266 241 125 112 100
236 270 240 99 26 51
239 275 230 103 27 54
239 276 231 99 28 53
239 279 229 112 75 62
239 279 230 108 64 57
235 275 239 104 32 52
235 276 238 105 34 53
235 278 236 99 36 51
234 278 239 113 35 53
237 274 235 92 30 44
239 272 233 98 29 44
238 273 234 96 35 47
238 275 232 98 34 53
238 275 234 93 26 46
237 273 237 91 30 41
237 272 238 92 27 41
237 275 236 93 29 43
237 277 233 95 30 47
237 277 234 93 27 44
237 279 232 96 38 35
236 279 235 99 30 48
238 277 233 96 32 51
236 276 237 98 30 46
236 278 236 98 32 48
239 283 226 132 116 101
237 282 230 121 105 88
239 280 228 119 94 81
238 280 231 101 67 53
238 283 228 126 110 94
239 285 225 131 117 102
239 284 227 132 116 102
239 287 224 129 112 94
238 287 227 129 113 98
237 285 229 127 109 91
237 284 230 127 109 91
237 287 228 132 115 98
236 287 231 141 124 108
235 280 235 101 35 44
234 282 235 116 86 67
235 283 234 128 108 91
233 282 238 111 44 53
234 281 236 107 40 41
234 280 238 112 29 55
234 283 237 120 87 70
233 287 234 136 118 101
235 285 232 133 116 99
234 285 235 133 114 96
235 287 232 143 126 111
233 285 236 129 110 90
233 284 238 125 92 77
233 286 236 133 114 94
232 286 239 135 114 93
236 280 233 101 57 47
237 281 232 113 87 74
236 283 232 124 105 88
231 273 247 108 37 53
231 279 243 114 37 59
231 276 246 110 33 53
231 278 244 112 31 59
230 278 247 111 28 56
227 272 253 137 118 98
226 273 254 139 121 102
227 274 253 127 109 91
226 275 254 126 106 87
225 279 255 116 36 63
226 276 254 113 72 56
226 279 253 112 35 55
226 278 254 112 38 55
229 273 249 116 84 70
229 273 250 119 97 78
228 275 251 108 30 39
230 272 248 122 96 81
231 273 248 109 51 56
231 274 248 109 35 56
229 276 249 107 19 43
229 277 250 109 19 45
228 278 251 112 34 55
230 276 249 109 25 44
228 276 252 109 27 49
231 281 243 112 32 57
231 283 243 111 20 58
229 282 247 114 33 57
230 281 245 110 28 56
230 280 247 108 27 53
230 283 245 113 23 58
231 284 242 112 19 52
231 287 241 136 113 92
229 284 246 117 28 60
229 286 247 118 20 57
230 285 244 113 32 55
230 286 244 117 69 61
231 287 244 129 97 84
227 282 251 113 27 56
225 283 255 117 56 69
227 281 252 115 27 59
226 282 253 122 33 58
226 282 254 120 37 58
227 287 250 123 22 60
225 286 255 114 87 95
226 285 252 124 41 64
226 284 255 118 66 75
226 287 252 122 44 66
226 287 254 115 70 81
229 281 248 112 30 55
228 282 249 113 35 57
228 283 250 113 27 54
229 285 249 115 32 56
228 286 249 120 21 54
229 287 249 122 11 54
233 274 243 108 30 49
235 272 240 98 29 46
234 272 243 105 29 54
235 274 240 105 33 54
232 272 245 103 39 47
232 272 246 103 50 43
233 274 244 108 31 46
232 277 243 111 31 54
232 279 241 113 29 55
232 278 242 112 34 50
234 276 240 105 26 48
234 276 242 111 34 57
232 277 245 114 39 61
233 280 240 113 19 53
232 281 242 111 27 52
233 282 240 114 26 53
232 285 240 122 85 66
243 260 231 87 95 105
242 263 231 91 98 107
247 256 227 90 93 99
247 258 226 92 94 99
245 256 230 84 92 102
245 259 229 87 95 105
245 259 230 84 93 104
247 256 229 88 95 103
246 258 229 90 97 106
245 262 226 84 96 109
247 260 224 83 81 82
246 260 227 82 91 101
246 263 224 84 91 101
246 262 226 83 95 107
245 261 229 82 93 105
244 262 228 83 96 111
244 262 230 84 95 108
242 257 235 81 91 102
243 258 232 77 89 102
242 258 235 81 92 103
241 257 236 91 99 109
240 257 239 88 94 103
241 258 237 93 100 110
242 256 236 86 94 105
241 260 235 85 94 105
240 262 235 114 111 111
242 260 232 92 97 105
243 260 233 87 95 106
242 263 232 101 103 108
241 260 236 80 91 104
244 256 233 79 89 101
244 258 232 78 89 101
241 267 231 95 72 82
242 264 231 88 93 102
242 267 229 93 94 102
242 266 230 94 94 100
243 268 227 100 104 111
242 270 227 97 87 95
241 269 229 95 57 73
241 269 231 100 47 63
240 271 231 102 29 55
242 269 228 98 84 92
242 270 229 100 60 78
244 264 226 88 100 114
245 264 227 86 99 113
245 266 225 81 96 111
244 267 226 90 100 112
244 264 228 86 100 115
244 269 224 78 86 96
244 269 226 91 98 106
241 264 232 93 91 93
240 264 235 123 112 102
240 267 233 98 41 61
240 266 235 99 65 58
240 269 232 99 38 54
240 270 233 99 34 51
249 256 225 97 96 97
248 257 226 93 94 97
249 258 224 104 98 94
241 274 227 103 37 58
243 273 225 98 81 83
243 272 226 99 87 88
243 274 225 99 68 70
242 275 226 102 49 63
241 273 229 102 34 53
241 272 230 102 32 55
241 275 228 103 29 52
240 277 227 105 50 48
241 278 225 119 89 75
241 278 226 116 80 67
242 277 224 117 97 84
242 278 224 123 107 90
240 277 229 101 38 45
244 272 224 94 92 95
241 281 224 137 120 104
240 281 227 123 107 93
241 282 224 137 119 102
242 280 224 133 117 101
240 284 226 130 114 99
239 290 223 128 113 98
239 293 222 130 114 99
239 294 223 134 117 99
239 296 222 132 114 96
239 299 221 137 118 99
239 300 221 143 124 105
239 300 222 145 126 108
238 302 223 142 124 107
239 304 220 145 126 109
238 304 223 135 119 103
238 307 221 134 116 98
238 306 222 134 116 99
239 309 219 133 113 92
237 310 223 133 115 96
239 308 220 138 119 100
238 308 223 140 121 103
238 311 221 133 115 97
238 311 222 134 115 97
239 319 214 118 102 85
235 315 223 126 110 96
235 319 219 122 105 88
232 319 222 120 102 86
234 317 221 123 107 91
234 316 222 127 111 96
234 318 220 121 104 87
237 314 219 131 114 97
238 312 219 131 114 96
239 313 218 133 115 97
238 314 218 132 115 98
237 312 221 123 105 88
237 312 222 126 108 90
236 315 220 126 110 95
236 314 222 123 107 91
238 313 220 132 115 98
236 317 219 123 106 90
236 319 217 131 112 93
236 318 218 126 109 91
239 316 216 123 105 89
238 319 216 127 110 91
247 288 207 134 123 113
247 291 204 130 121 112
247 290 207 127 107 84
247 295 202 129 116 101
247 293 204 132 117 100
246 293 207 112 30 43
247 294 204 129 111 92
246 295 206 112 34 52
247 296 201 128 114 99
247 297 203 121 99 82
246 298 203 109 59 53
247 299 203 109 51 51
246 296 204 113 79 60
246 296 206 116 23 57
246 298 205 114 15 47
247 300 200 129 112 92
246 301 203 113 32 46
247 303 200 112 79 69
246 303 203 117 46 63
245 301 206 121 23 48
245 302 207 121 14 48
246 301 204 117 18 49
246 302 205 121 29 54
251 288 194 81 101 121
251 290 193 83 101 119
251 290 194 92 105 121
249 291 197 125 122 123
251 288 197 101 113 128
250 289 199 100 112 127
250 291 197 116 117 123
250 291 198 109 113 121
250 292 195 123 120 119
251 294 192 102 107 116
250 294 195 132 121 113
249 293 197 135 120 108
249 293 199 136 125 116
248 295 199 132 116 100
250 292 196 132 125 121
250 295 196 137 122 110
252 288 194 87 105 123
249 288 201 101 110 122
248 289 202 99 109 120
248 291 201 120 119 122
248 290 202 106 112 120
250 289 200 101 112 126
248 290 204 108 109 113
248 293 201 137 125 115
248 293 203 132 120 106
248 294 202 134 120 106
251 297 192 128 122 119
250 297 195 143 127 114
251 299 192 126 119 117
249 296 196 142 125 110
248 297 199 139 122 106
249 298 196 141 126 113
248 299 199 140 123 106
250 296 196 140 124 111
249 303 192 137 123 110
250 300 192 131 121 113
250 300 195 141 128 117
250 303 193 138 124 113
249 301 197 138 125 112
249 300 198 140 124 108
249 303 196 136 125 116
248 303 199 133 116 98
248 298 200 136 120 101
243 290 215 118 33 58
243 293 214 117 29 52
243 295 215 118 79 65
245 290 210 115 18 51
246 288 209 113 78 65
246 289 210 111 33 51
244 288 213 118 23 57
244 288 214 118 30 59
244 291 212 122 23 56
245 292 209 120 14 55
245 293 210 122 21 55
245 295 209 124 30 62
245 295 210 125 27 61
246 293 209 120 15 52
244 293 213 119 17 51
244 295 213 120 32 48
242 289 217 108 38 43
242 288 218 108 62 48
242 290 217 108 51 45
242 290 218 112 78 53
241 288 220 149 128 106
240 288 223 136 119 103
240 291 221 136 119 102
240 291 222 130 114 99
241 294 218 132 113 91
242 292 217 109 72 56
242 292 218 119 94 71
242 295 217 123 102 81
240 293 220 130 114 99
240 294 220 123 106 89
241 295 220 128 110 91
243 296 215 117 86 71
243 298 214 122 89 74
243 300 213 120 90 75
243 300 215 132 114 94
243 303 212 122 98 71
242 303 215 136 119 100
245 297 208 125 33 64
244 297 211 123 25 61
245 299 208 124 32 63
244 299 211 122 39 63
244 297 213 117 51 51
245 300 209 123 27 58
244 301 210 119 21 45
245 303 209 120 28 43
244 300 212 115 53 52
241 296 219 134 116 95
241 298 219 133 114 95
242 297 216 127 109 88
242 297 218 143 124 104
243 298 216 128 109 87
240 297 221 128 110 91
240 299 220 130 110 89
240 301 219 131 115 97
241 302 217 143 125 108
241 302 218 137 121 105
242 301 217 147 129 112
240 300 220 136 117 97
247 304 198 119 104 89
247 307 196 113 96 76
247 307 198 104 67 61
246 311 195 103 111 120
245 310 199 113 28 48
247 308 197 105 75 61
246 309 198 109 57 55
246 311 196 105 101 107
246 311 198 106 56 73
247 304 200 111 70 69
246 304 203 118 45 65
246 307 200 114 57 68
246 307 202 118 51 69
245 305 205 123 39 66
245 306 204 122 46 69
245 306 207 118 25 47
245 309 201 112 42 55
245 310 200 114 45 60
244 310 203 117 33 55
245 311 202 115 34 60
246 308 202 118 55 68
245 309 204 117 36 61
245 308 207 123 71 55
244 311 204 124 65 57
244 311 207 139 111 90
246 312 195 100 112 124
247 314 192 118 104 91
246 314 195 94 92 98
245 313 196 101 111 121
245 313 199 111 85 94
244 314 199 108 105 111
246 312 196 106 113 120
247 317 192 92 74 87
246 317 195 107 31 51
247 319 193 102 95 105
247 319 195 107 85 90
244 316 199 106 117 128
245 318 197 104 50 72
244 319 199 97 98 109
246 318 196 111 37 61
243 319 206 122 103 83
245 312 200 117 30 58
244 313 202 123 56 56
244 315 201 112 88 86
244 312 204 130 81 70
244 312 207 139 113 93
244 315 204 141 112 93
244 315 207 132 110 93
244 316 202 121 98 88
244 318 201 106 116 127
244 319 202 108 113 120
244 317 205 126 103 88
244 318 204 124 102 91
244 318 207 125 107 89
248 305 195 132 117 101
248 307 192 140 129 120
249 307 193 147 130 115
249 306 194 141 124 107
248 305 196 128 113 98
248 306 196 127 112 96
248 309 192 116 121 130
248 308 195 135 119 103
248 311 192 102 116 131
248 319 193 100 97 109
242 304 214 141 122 102
243 305 214 147 126 106
242 306 214 145 125 105
243 309 211 137 118 99
241 310 215 131 113 95
243 308 213 145 126 107
242 309 214 137 119 102
243 310 212 132 112 91
242 311 214 123 105 87
245 305 208 119 43 47
244 305 211 128 104 83
245 307 208 128 88 69
244 307 211 129 110 88
244 309 208 141 117 93
244 308 211 135 116 97
244 311 208 139 117 94
241 304 217 143 124 106
240 305 218 136 116 96
241 306 216 144 125 106
240 306 219 135 115 94
242 306 216 143 124 105
241 308 216 137 117 98
240 309 218 139 120 102
241 310 216 134 115 97
243 313 211 130 110 90
241 312 214 121 105 89
241 315 214 120 103 86
242 313 213 125 109 92
242 314 212 123 106 88
243 315 212 122 106 88
243 317 209 117 102 86
243 316 211 121 106 91
243 318 208 123 107 90
242 319 210 111 96 80
240 317 215 123 105 88
240 319 213 116 101 85
240 318 214 120 104 88
242 317 212 119 104 90
242 319 212 113 99 84
244 312 210 137 117 95
244 315 209 132 115 98
244 317 208 124 107 90
240 313 217 134 114 93
241 314 216 121 104 86
235 289 231 144 126 109
235 292 230 143 123 103
235 295 229 144 124 104
237 288 227 133 117 102
237 291 227 139 121 104
239 289 224 126 109 93
238 290 224 127 112 97
238 290 226 130 113 96
237 288 229 138 120 103
236 289 231 143 125 108
237 290 228 140 122 104
237 293 225 139 121 104
237 294 225 142 124 106
237 294 227 142 122 103
238 293 225 135 118 100
238 295 225 142 124 106
237 292 228 143 124 107
236 294 229 143 123 103
233 289 235 140 121 103
234 289 233 142 123 105
234 290 233 146 126 108
234 290 234 146 126 108
232 288 237 141 122 103
233 289 237 140 121 102
232 290 237 139 120 100
233 291 237 141 121 100
233 292 235 144 125 106
234 293 232 145 126 107
234 292 234 146 126 107
234 294 233 147 127 108
234 294 235 147 126 105
233 292 237 148 126 106
232 293 238 152 131 110
233 295 236 148 126 106
232 295 239 146 126 106
235 297 228 147 127 108
235 297 231 143 124 107
235 299 230 136 117 99
235 301 231 141 122 104
237 297 225 146 126 106
237 296 226 146 125 105
236 298 226 146 126 107
238 296 224 141 122 104
238 299 224 142 124 107
236 299 229 140 120 101
237 300 225 140 121 101
236 301 226 144 124 103
237 303 224 135 117 99
237 302 227 144 124 105
238 302 224 140 122 104
236 301 229 143 124 105
236 302 229 143 123 103
236 303 230 144 124 104
234 297 232 144 125 106
234 296 235 145 124 101
235 298 233 142 123 103
234 299 234 143 122 101
233 296 237 149 128 109
233 296 238 146 126 108
233 299 236 145 124 103
233 298 239 141 122 102
234 298 236 146 125 103
235 301 233 139 121 103
235 300 234 137 116 95
235 303 233 141 121 102
235 302 234 142 123 105
233 301 236 142 122 105
233 301 238 137 119 100
233 302 238 136 119 102
234 301 236 143 123 105
234 303 238 138 121 105
231 288 240 142 122 103
231 288 242 136 115 96
231 290 241 140 121 103
231 290 243 132 113 94
229 289 246 135 106 83
229 291 247 150 128 105
230 288 246 124 83 70
231 291 245 141 120 98
231 293 241 142 123 104
231 294 243 145 124 102
229 294 247 147 128 110
231 292 245 144 123 102
230 295 245 148 127 106
230 294 246 147 127 108
227 288 251 122 25 58
226 288 253 120 48 75
226 288 254 113 77 88
227 290 253 111 74 80
226 291 255 98 100 113
227 292 254 106 107 111
227 295 253 113 110 111
228 288 249 120 35 52
228 288 250 119 28 54
229 290 249 140 119 99
228 291 250 137 117 100
229 293 248 145 126 107
228 293 251 136 119 102
229 295 248 145 127 109
228 295 251 132 117 104
228 292 253 117 110 103
228 295 252 130 118 109
231 296 245 148 126 104
231 296 246 147 126 106
231 299 244 137 117 99
231 299 246 136 118 100
231 301 243 139 120 102
229 303 247 114 81 74
230 300 247 130 113 96
231 301 246 130 113 95
231 303 244 127 102 87
227 297 253 102 102 107
227 298 253 97 98 104
227 299 255 97 89 95
226 301 255 99 106 115
226 303 253 89 100 112
226 302 254 94 103 113
229 297 249 139 120 102
229 296 250 138 119 100
228 299 251 109 87 75
230 296 248 143 124 105
230 299 248 136 119 102
228 297 253 108 104 106
229 301 249 108 73 65
229 301 251 95 81 77
229 303 249 99 62 55
229 302 250 97 58 53
230 301 249 114 81 72
228 300 252 99 96 96
228 302 252 100 102 106
232 293 240 143 124 105
232 295 240 144 124 104
232 295 243 144 122 99
232 296 242 142 122 101
232 298 241 144 124 106
232 299 242 144 124 106
232 298 244 142 122 104
232 300 240 142 121 101
232 302 240 137 118 99
232 303 242 133 113 93
231 309 236 122 96 83
231 309 239 120 90 78
231 311 236 121 91 80
231 310 238 122 92 79
231 315 230 116 95 76
231 318 226 117 101 83
229 318 230 102 49 47
231 316 229 114 89 73
230 317 231 109 67 58
230 318 229 103 65 56
231 319 228 104 67 58
230 313 233 120 89 77
230 312 234 122 92 81
230 314 232 118 88 77
230 314 234 116 79 69
229 313 237 112 59 59
229 315 236 105 30 48
229 315 238 105 34 50
230 313 237 111 55 56
230 314 237 112 49 57
229 317 234 106 37 49
229 319 233 111 37 50
229 319 234 111 43 53
230 316 234 105 54 48
229 317 236 106 36 52
228 317 239 110 47 45
228 319 237 110 52 51
228 319 239 111 74 51
234 307 231 134 116 99
235 309 227 137 119 102
233 311 229 129 111 92
235 308 228 139 121 105
234 308 231 132 115 97
234 310 229 132 114 96
235 311 228 133 114 96
237 305 224 137 119 102
237 304 227 142 123 106
237 307 224 142 124 106
237 306 227 143 124 107
236 304 229 139 119 100
236 305 230 140 120 101
236 307 229 139 122 105
237 309 224 140 121 102
236 309 227 139 119 100
236 311 224 134 116 99
236 310 226 137 116 96
233 306 235 133 114 96
235 305 232 134 115 95
234 305 235 138 119 101
234 307 232 134 117 100
234 306 235 133 114 96
233 305 238 136 118 101
233 306 237 137 119 101
232 307 239 122 99 82
234 305 236 139 121 103
233 309 233 131 113 96
233 308 235 132 116 99
233 310 232 131 113 94
232 311 234 122 100 81
232 309 236 122 100 85
233 314 227 128 112 96
235 313 225 124 105 87
235 313 226 129 112 93
235 314 225 129 111 95
232 313 229 128 110 91
232 312 231 128 110 90
232 315 228 126 109 91
232 314 230 122 104 83
233 316 224 128 111 95
232 316 227 126 110 94
232 318 224 120 105 89
232 318 226 119 103 86
232 317 228 115 98 79
232 312 232 127 110 89
226 310 247 101 57 56
227 311 247 103 50 50
231 307 241 122 95 84
231 306 243 115 82 72
229 305 247 101 65 59
229 307 246 98 57 54
230 305 245 111 79 74
230 306 244 110 76 72
229 309 243 98 53 46
229 310 243 100 45 48
231 308 240 121 93 82
230 309 242 107 63 61
230 311 240 108 56 62
229 308 245 98 53 49
228 309 247 100 35 44
228 311 245 103 49 55
227 304 251 99 100 105
226 307 251 103 105 114
225 304 254 98 107 120
225 307 254 96 105 119
226 305 253 91 103 118
226 304 255 96 106 119
226 307 253 91 103 118
225 309 251 102 106 115
224 311 250 117 114 115
226 308 249 99 47 50
227 309 249 99 29 47
227 308 250 97 72 74
224 309 252 93 107 122
225 309 253 93 106 121
225 308 255 101 107 116
224 311 253 92 105 120
226 308 252 96 107 121
229 304 248 105 66 63
228 306 249 97 43 41
227 314 243 105 53 47
226 313 245 109 72 61
226 312 246 109 69 55
226 314 245 114 86 68
227 315 244 110 76 56
227 317 241 112 76 60
227 318 240 118 88 65
226 319 243 133 115 94
224 317 247 138 119 98
225 318 244 138 120 101
224 319 246 140 120 101
226 316 245 130 112 92
226 316 246 132 114 94
228 313 241 105 35 52
228 312 242 100 38 47
228 314 240 104 37 52
228 314 242 105 41 50
228 316 241 107 59 50
228 319 240 115 85 58
225 313 249 139 121 104
224 314 249 136 121 106
225 315 249 138 121 104
224 312 254 93 104 117
224 314 255 94 103 114
224 318 248 142 121 100
233 304 240 132 114 97
232 304 243 127 102 87
232 306 242 122 94 83
222 356 128 117 118 125
223 357 129 122 123 129
222 358 129 130 130 136
222 359 131 130 130 136
223 358 132 126 127 133
219 366 128 133 133 140
221 360 128 133 133 138
220 362 128 136 136 142
221 363 129 133 133 139
222 360 129 122 124 131
222 362 131 119 121 128
222 361 133 125 125 131
223 361 134 124 125 130
222 363 133 130 130 136
223 362 135 127 127 133
220 364 130 125 126 132
221 365 131 132 132 137
220 367 131 134 133 138
221 365 133 124 124 130
220 366 133 131 131 137
220 367 135 124 126 132
222 364 135 130 130 135
223 363 136 129 129 135
223 363 139 117 121 129
221 365 136 124 125 131
221 366 137 124 126 132
221 367 138 121 124 131
222 365 137 124 125 132
223 364 139 117 121 129
221 366 142 106 115 126
222 365 140 117 122 131
222 365 142 109 117 128
222 366 141 114 120 130
223 363 146 103 109 119
221 367 147 100 100 104
222 365 146 97 102 110
222 366 144 101 110 121
222 367 147 102 102 104
223 364 150 98 86 86
222 367 149 108 104 103
223 366 150 101 92 85
223 365 153 101 82 70
222 367 153 86 78 72
223 366 155 100 75 57
223 367 157 105 79 62
215 374 129 121 125 134
211 380 128 94 108 125
211 382 129 98 99 108
211 383 131 110 107 111
213 377 128 106 119 136
213 378 129 105 118 133
213 379 131 99 112 126
214 376 130 99 110 124
215 377 131 100 109 120
213 379 133 94 108 123
215 377 133 98 107 118
214 378 133 88 100 114
214 378 135 97 105 115
212 380 128 95 109 126
212 381 131 110 118 130
212 382 130 107 108 114
213 380 133 95 107 122
213 381 134 94 98 105
212 383 133 102 87 93
214 380 134 90 102 115
214 378 136 106 109 117
214 379 138 110 105 104
215 378 140 111 107 108
215 378 143 100 96 95
213 381 136 98 94 94
212 382 137 116 108 104
212 383 138 119 112 108
214 380 137 93 90 89
213 381 141 107 102 99
212 383 141 104 97 92
213 382 142 100 94 90
214 381 141 107 102 100
217 370 128 136 136 141
218 368 128 122 124 130
218 369 130 132 132 138
218 370 128 136 135 141
218 371 130 129 130 136
219 369 134 115 118 125
218 371 133 128 128 134
219 370 134 119 122 129
216 373 128 130 132 139
217 372 130 116 118 125
216 374 129 128 130 137
218 372 131 126 127 132
217 373 134 125 127 133
217 374 132 130 130 135
217 374 135 114 120 129
218 372 134 126 127 133
220 368 133 123 125 132
220 369 135 116 118 125
218 371 136 120 123 131
219 371 137 112 118 128
219 371 138 108 116 128
219 370 141 101 108 119
219 371 142 97 101 108
216 375 136 106 114 125
217 374 138 102 111 123
218 372 137 112 118 129
218 373 138 107 116 129
217 375 140 99 98 103
218 372 140 105 113 124
218 373 142 97 98 101
218 374 143 103 100 101
220 368 139 112 117 127
220 369 140 112 119 130
220 369 143 98 104 114
216 376 134 106 113 123
216 377 137 101 107 116
216 378 139 106 103 104
217 376 141 107 102 103
217 376 142 110 105 106
215 378 144 93 89 87
215 379 148 94 75 62
215 379 151 91 74 68
213 382 144 97 88 78
213 382 147 96 65 64
214 381 144 101 93 86
214 381 147 92 66 55
213 382 149 101 76 75
214 380 149 97 71 61
214 380 150 96 74 70
215 381 151 99 83 80
214 383 150 101 92 89
215 380 153 89 75 72
214 382 153 98 91 86
214 382 154 98 90 84
215 382 155 93 86 80
214 383 156 89 82 77
214 383 159 77 72 68
219 370 145 98 96 97
219 371 146 103 102 103
217 375 145 99 97 99
219 373 145 108 105 105
219 373 146 103 101 102
218 374 147 90 88 88
217 374 150 97 90 85
218 372 149 89 87 88
218 372 151 101 95 91
219 373 151 110 101 94
218 374 150 103 95 89
221 368 144 101 106 114
221 368 147 105 104 106
220 370 146 103 100 101
221 369 148 103 103 105
220 370 149 89 88 89
220 371 151 96 90 86
222 368 151 91 89 89
217 375 152 99 92 87
219 373 152 107 99 93
219 373 154 99 92 87
219 374 153 101 94 88
219 372 156 95 88 84
219 373 159 80 76 75
219 374 157 89 84 80
219 375 159 84 78 75
220 371 153 107 98 92
221 370 154 104 97 92
222 368 153 88 81 77
222 369 155 105 94 85
221 371 156 92 86 83
221 371 159 95 89 85
223 369 156 105 90 79
223 368 159 93 63 46
222 370 158 98 89 83
220 372 155 97 90 85
220 372 159 83 79 77
217 376 144 97 94 93
217 376 146 92 90 89
216 378 145 89 84 80
217 376 148 100 94 90
216 376 151 97 90 83
216 378 148 98 89 80
216 376 153 97 90 85
216 377 154 98 92 88
216 378 152 95 85 79
216 379 154 91 84 79
217 379 155 93 87 83
217 377 159 88 81 77
216 379 158 90 83 76
217 379 159 83 76 71
218 376 159 86 80 76
216 381 153 89 77 73
216 380 156 93 85 81
217 380 157 95 88 82
217 380 158 94 86 80
207 379 175 94 85 79
206 383 171 81 70 58
205 381 175 99 93 89
205 383 173 100 93 89
206 381 173 88 79 71
206 380 175 95 87 83
206 382 173 90 82 76
199 382 186 67 59 52
197 383 189 67 60 54
197 382 191 61 53 48
198 381 191 63 56 49
198 382 188 66 59 53
199 382 189 66 60 55
207 375 180 103 96 91
207 374 183 90 81 75
207 369 190 123 63 13
207 371 188 108 86 62
207 370 190 116 68 18
205 375 184 86 79 73
205 375 186 96 86 78
206 373 186 97 87 79
206 374 184 87 78 72
207 374 185 92 83 76
205 372 190 100 81 59
204 374 189 93 83 75
204 374 190 88 77 66
206 372 188 102 87 71
203 379 182 90 82 76
203 381 179 73 69 66
203 383 176 95 89 86
202 383 179 74 69 65
200 383 181 70 62 57
200 382 183 65 59 55
202 381 181 75 67 63
202 381 182 73 64 59
202 382 181 75 68 62
205 379 179 101 95 92
207 377 179 105 95 88
207 378 177 94 85 78
207 378 178 103 95 89
205 377 183 91 84 79
205 378 181 94 87 83
204 379 183 89 80 73
207 376 181 104 97 92
204 381 177 87 82 80
