ply
format ascii 1.0
comment Version 2, Copyright 2017, 8i Labs, Inc.
comment frame_to_world_scale 0.179523
comment frame_to_world_translation -45.2095 7.18301 -54.3561
comment width 1023
element vertex 2174
property float x
property float y
property float z
property uchar red
property uchar green
property uchar blue
end_header
370 784 150 197 169 141
369 785 153 222 162 119
369 786 153 224 162 119
370 784 152 168 140 109
371 784 153 152 136 124
371 784 154 187 161 138
368 785 158 211 153 114
369 785 159 212 153 115
368 786 159 212 154 114
370 784 158 213 154 116
359 774 175 187 134 110
353 781 175 188 139 108
354 780 175 189 140 107
354 783 174 192 141 108
356 777 175 186 137 107
357 778 175 189 140 107
358 777 175 187 139 105
358 779 174 192 141 108
356 781 175 192 140 106
356 782 174 192 139 107
359 781 173 194 143 110
358 782 173 195 143 112
358 782 174 195 144 113
361 773 175 185 139 109
361 775 174 188 142 109
363 773 175 185 155 130
363 774 174 183 146 114
364 771 175 161 143 129
366 769 174 92 114 135
367 771 173 105 137 165
367 771 174 96 129 159
364 773 174 194 173 157
365 775 172 163 128 102
366 772 173 146 151 161
367 773 173 137 144 155
366 775 173 107 73 54
367 783 164 207 149 114
367 782 166 202 148 111
360 777 174 190 140 105
361 779 173 192 142 106
363 776 173 189 143 115
362 779 172 194 142 109
363 781 171 197 143 111
363 783 170 197 141 106
361 781 172 196 143 110
361 782 172 195 141 108
362 782 172 196 141 108
366 776 171 182 154 129
367 777 171 190 163 140
366 778 171 195 148 111
364 776 172 191 147 115
364 778 172 194 146 110
364 780 171 197 144 113
365 781 170 198 144 110
364 782 170 198 143 108
366 781 169 199 145 112
366 782 168 200 145 112
352 769 179 174 132 102
352 770 178 176 134 102
354 768 179 171 133 101
355 770 177 178 133 104
353 772 177 181 136 104
352 774 177 181 139 105
354 772 177 180 135 104
354 775 176 186 139 103
357 769 177 172 133 106
356 770 177 178 134 105
358 768 177 173 144 123
359 768 178 189 169 155
359 771 176 179 139 108
357 772 177 181 135 103
357 775 176 185 139 103
358 774 176 186 138 107
353 777 177 184 139 104
353 779 176 185 136 105
354 778 176 186 139 105
353 780 176 185 136 105
360 768 177 185 168 157
360 770 177 146 120 95
362 768 177 169 155 147
362 770 176 129 118 110
361 772 176 180 141 110
359 791 166 205 147 113
353 784 175 190 139 110
352 787 175 192 140 112
354 785 174 193 142 110
355 787 173 194 141 108
353 789 173 197 146 110
352 791 173 196 145 111
352 791 174 195 144 109
355 789 172 197 143 109
354 791 173 198 145 112
359 787 170 197 141 110
357 785 173 195 141 111
357 786 172 195 141 109
358 785 172 196 142 111
359 786 172 196 141 111
356 791 170 199 140 110
357 791 171 198 141 110
358 789 170 197 142 110
358 791 168 201 144 109
358 790 170 199 144 112
357 789 172 198 141 110
354 799 163 207 146 115
352 799 167 204 143 115
355 796 167 204 146 116
355 798 164 207 145 116
354 798 167 203 143 111
359 793 162 206 146 113
359 794 161 206 145 112
358 795 163 206 146 113
357 794 165 203 143 112
357 794 166 203 143 114
359 792 165 205 146 112
358 793 166 205 146 115
358 794 165 206 146 114
357 796 160 205 143 108
356 797 163 207 145 116
356 798 161 205 142 111
358 796 160 205 143 108
356 797 165 206 148 118
352 795 171 198 142 110
354 793 171 199 143 113
354 795 169 199 141 109
354 794 171 198 141 110
352 793 173 198 145 114
352 795 172 199 142 111
352 797 170 200 142 110
352 798 169 202 143 114
353 799 168 203 142 114
355 796 168 202 143 113
356 793 169 201 141 112
356 792 170 200 141 111
358 792 168 202 144 111
363 787 166 202 143 109
361 791 163 206 146 112
363 789 163 205 146 112
363 790 161 207 147 113
361 789 165 204 144 115
360 791 165 205 146 115
360 790 166 204 146 117
362 788 165 203 144 112
363 789 164 204 145 111
365 787 161 209 149 113
365 787 163 208 150 115
367 785 162 209 151 119
366 787 161 209 150 112
365 785 165 206 148 116
365 785 166 204 146 114
365 786 164 209 151 117
364 787 166 204 143 112
367 784 164 208 148 115
364 789 160 210 150 116
364 788 163 205 146 110
361 786 169 199 140 110
360 787 171 197 141 114
363 785 168 200 141 110
363 784 170 197 140 105
363 786 168 200 141 110
360 788 169 199 142 111
361 789 168 202 145 116
364 785 168 201 143 112
361 792 160 210 149 115
360 793 162 208 147 113
360 792 164 205 145 111
373 773 167 169 156 149
373 775 167 132 133 139
375 772 166 91 111 132
375 774 165 174 166 166
374 775 166 134 131 135
371 771 171 116 98 79
368 769 174 119 120 126
369 770 172 117 118 124
370 769 173 155 144 138
370 771 172 96 96 106
369 773 171 148 155 166
369 774 170 144 127 113
371 773 169 115 93 80
370 774 169 138 121 108
371 775 168 153 147 147
372 769 171 104 129 153
373 771 169 120 100 81
373 771 170 133 115 99
374 768 171 91 123 151
374 771 169 140 124 112
372 768 172 102 129 154
373 772 168 119 105 93
374 772 168 157 142 131
371 777 166 113 134 156
371 779 165 185 159 135
371 779 166 158 132 105
369 782 163 208 156 118
370 781 162 196 165 135
371 781 163 212 186 163
371 782 161 154 121 90
369 781 165 201 150 115
369 780 167 190 146 115
369 782 164 207 153 116
370 781 164 203 163 132
373 779 160 151 143 141
373 778 163 103 142 174
375 777 161 114 106 102
375 776 163 113 106 103
375 778 160 126 119 117
373 777 165 100 145 181
372 778 164 107 131 154
374 776 164 126 144 165
372 781 160 132 108 84
369 776 169 189 173 163
368 778 169 196 166 138
370 776 168 173 168 171
368 780 168 198 146 114
376 770 167 54 63 81
377 771 166 82 110 134
378 769 167 133 125 122
378 771 164 186 169 167
378 770 166 144 140 144
377 774 161 98 125 150
376 775 163 144 131 129
379 772 161 185 175 172
378 773 162 93 118 143
376 772 165 56 105 140
377 773 164 147 156 170
376 775 164 159 144 137
381 771 160 155 97 93
381 770 162 206 186 169
383 769 160 163 150 143
382 769 163 208 189 174
380 768 165 165 138 116
381 769 164 192 165 146
380 772 161 181 153 137
377 768 168 170 153 143
376 776 161 120 95 78
369 784 160 211 150 114
352 800 148 204 140 110
352 801 151 208 144 109
352 801 153 209 142 108
353 801 154 209 142 108
352 802 154 208 141 108
353 802 155 203 137 105
353 801 156 199 134 102
352 803 156 203 141 108
352 803 159 202 142 107
354 801 156 200 135 102
354 800 159 201 140 108
353 801 160 201 143 106
352 802 161 203 143 109
352 802 162 206 144 113
354 800 161 203 143 109
354 800 163 206 144 113
353 801 164 206 144 113
352 801 167 205 144 116
352 800 168 203 143 115
258 915 115 97 76 57
257 913 119 92 71 45
257 915 116 111 86 61
258 915 116 100 78 59
258 914 119 94 76 59
257 916 115 98 76 53
259 916 113 91 71 51
258 917 114 89 69 46
256 916 116 114 92 67
257 917 117 88 71 54
256 918 119 77 56 37
259 917 116 84 66 48
259 917 119 81 65 50
260 915 119 106 83 66
261 916 113 89 71 53
260 917 115 88 69 51
260 916 116 88 70 52
261 916 117 88 70 52
261 916 119 101 80 63
257 913 120 97 77 58
257 914 120 97 77 56
258 914 121 114 94 72
258 914 122 114 95 75
259 915 123 119 100 87
257 914 125 129 110 92
257 914 126 122 97 80
258 915 125 117 92 76
256 918 120 64 47 37
256 919 122 62 51 43
258 918 120 72 59 45
258 919 122 63 51 41
259 916 124 92 80 70
258 916 127 95 79 67
258 919 124 62 50 40
259 919 125 65 53 43
260 915 120 112 91 75
260 917 121 85 69 56
260 916 123 95 84 74
260 918 123 70 56 42
256 920 124 59 52 45
257 921 126 57 46 43
256 923 127 61 50 43
258 920 127 59 50 43
256 899 135 70 53 44
258 898 135 78 61 39
256 900 135 65 48 45
256 903 135 60 46 39
259 901 135 82 58 41
260 899 135 91 70 44
263 898 135 100 78 58
261 901 135 95 72 48
263 900 135 95 77 59
263 903 135 99 79 54
258 896 136 88 66 45
256 903 136 60 44 40
259 902 136 81 55 39
260 897 136 106 81 57
262 896 137 107 83 60
263 896 138 100 78 61
260 902 136 90 65 35
256 905 135 71 55 47
257 907 135 72 51 44
256 908 134 90 70 58
256 910 133 81 62 56
258 908 135 64 50 45
258 911 133 82 62 53
260 907 135 87 61 41
263 904 135 99 78 52
263 907 134 100 77 50
261 908 135 95 66 38
261 910 133 101 72 42
262 909 134 108 79 55
262 911 133 111 84 60
256 904 136 63 47 41
258 904 136 69 52 45
258 906 136 66 51 37
261 905 136 95 70 49
264 901 135 90 73 57
270 897 135 128 101 80
271 899 135 108 84 65
265 896 139 102 82 65
264 899 137 92 73 53
265 899 138 98 78 56
266 898 139 101 79 55
267 896 140 117 91 68
265 901 136 88 69 48
266 900 138 97 77 55
266 902 136 84 64 43
266 902 138 94 74 52
268 896 139 128 101 75
269 898 136 121 95 78
268 898 139 106 81 68
270 896 136 140 113 90
271 896 137 117 91 71
271 897 138 104 81 61
268 896 140 122 96 71
271 896 141 100 80 60
269 900 137 104 80 63
269 900 138 104 81 65
269 903 137 91 73 56
271 900 136 107 82 64
271 902 136 101 77 63
264 905 135 93 72 49
264 907 134 94 76 56
266 905 135 87 68 54
267 906 135 87 69 53
264 908 134 93 75 54
265 910 133 87 68 48
267 908 134 92 74 56
266 910 134 91 73 54
268 907 135 90 74 62
269 911 135 85 68 53
268 904 136 86 67 52
268 906 136 89 71 58
270 905 136 96 79 64
270 906 137 89 73 56
268 909 136 84 69 53
270 908 137 86 69 55
270 910 136 84 67 54
271 911 136 81 67 53
257 915 129 106 83 66
258 915 128 98 79 66
256 913 132 101 77 67
256 914 132 102 77 65
258 913 133 86 65 51
258 915 132 91 71 54
259 916 128 91 76 69
259 916 130 91 71 62
260 913 133 103 70 42
260 915 132 100 72 53
262 913 133 103 80 62
262 915 133 88 68 47
260 917 129 69 54 39
260 918 128 70 56 43
260 919 130 81 66 50
260 916 132 87 66 45
262 917 132 85 69 54
262 918 132 87 71 58
263 919 134 76 63 52
257 922 129 54 43 39
258 921 128 61 50 46
259 920 130 67 55 42
258 922 130 53 42 34
259 921 132 83 70 57
259 923 134 85 70 54
257 924 131 63 54 47
256 926 132 57 45 38
257 926 134 54 45 36
259 924 133 74 62 53
258 927 134 58 46 33
260 920 129 71 58 44
260 921 132 81 66 52
260 922 133 87 72 57
262 920 132 83 68 53
263 921 134 75 61 48
263 923 134 68 52 39
261 924 135 83 67 50
261 927 135 77 62 47
263 924 135 67 52 35
263 927 135 72 55 41
264 914 134 81 64 47
266 912 134 85 66 54
267 913 135 87 69 56
264 916 134 85 69 55
264 919 134 73 58 44
267 916 135 91 71 56
267 919 135 81 62 51
268 914 135 84 65 52
270 912 135 86 70 55
271 913 135 79 63 49
270 915 134 74 60 46
268 917 135 76 59 46
269 918 135 87 69 58
270 917 135 83 67 56
270 919 135 86 69 58
268 917 136 78 60 47
265 920 134 76 59 43
264 923 134 70 53 36
267 920 135 74 56 43
267 923 132 78 60 45
267 922 134 82 65 51
265 924 134 77 59 40
265 926 134 80 60 42
266 925 132 73 56 41
266 927 133 74 58 47
266 926 134 72 55 41
268 921 135 92 72 54
268 922 133 99 76 66
268 922 134 98 76 63
271 921 132 68 55 52
271 920 134 71 59 51
268 924 131 78 62 48
268 927 131 75 58 51
270 925 131 67 55 46
270 927 131 70 53 48
268 925 132 76 61 48
272 896 136 112 85 72
272 898 136 97 78 56
272 898 139 98 78 59
272 897 140 92 73 55
272 898 140 89 70 56
273 899 141 79 63 50
273 899 142 75 61 47
272 901 137 106 83 74
273 901 139 93 75 63
273 902 138 100 76 68
273 900 141 75 61 46
273 901 142 71 59 47
273 903 141 69 56 45
274 902 143 72 60 49
272 904 137 92 69 54
273 905 139 83 65 51
273 907 138 79 64 53
274 904 141 75 61 52
274 905 142 75 61 51
274 907 141 70 56 46
275 907 142 68 53 41
273 908 138 78 60 53
272 911 136 73 62 51
274 909 139 71 56 48
274 910 138 69 55 47
274 908 140 71 54 46
275 909 141 65 49 43
275 910 140 65 51 43
276 910 141 63 49 38
276 911 142 67 53 42
272 897 144 79 65 49
273 896 147 95 76 59
273 898 145 79 63 44
273 899 146 83 64 41
273 896 149 99 74 56
274 897 148 93 75 59
274 897 150 95 72 53
274 898 149 90 73 57
275 899 149 91 74 58
273 901 144 74 60 45
274 900 147 87 69 51
274 902 145 73 59 45
274 903 146 68 54 39
275 901 148 91 72 56
276 898 150 89 74 58
277 899 151 96 79 63
277 901 149 92 70 50
276 903 148 79 62 52
278 901 151 97 76 54
279 902 151 95 68 65
272 896 154 109 77 66
273 897 155 106 73 67
275 897 153 101 69 55
275 898 153 107 75 64
274 896 156 120 87 66
275 898 156 114 77 67
277 899 152 96 76 56
277 898 154 105 78 57
278 899 154 125 97 79
277 897 158 149 107 84
277 899 156 121 85 66
277 899 159 136 95 79
279 896 158 145 115 87
278 899 159 142 100 81
279 901 152 102 78 54
279 901 155 103 75 62
279 902 154 94 70 53
278 900 156 125 93 73
278 900 159 141 101 84
274 904 144 69 56 44
275 905 145 71 56 41
275 906 145 72 58 44
276 904 147 75 60 47
276 906 146 73 59 45
277 907 147 72 58 45
277 905 148 77 63 50
278 904 150 78 59 42
279 905 151 79 61 45
279 906 149 74 58 43
276 908 144 70 55 45
277 909 145 72 58 46
277 910 144 73 59 46
278 909 147 64 50 39
278 910 146 66 52 40
278 908 148 65 50 38
279 904 152 94 71 54
280 897 158 134 109 89
281 898 159 129 103 81
282 897 159 113 91 73
283 899 159 121 89 62
280 903 155 93 70 56
280 900 159 136 100 75
281 901 159 140 100 76
281 903 156 100 67 42
283 900 158 139 102 78
283 902 157 135 95 71
284 899 159 109 80 56
285 901 159 105 82 65
285 902 159 99 73 56
280 907 150 79 62 46
280 908 150 81 64 48
281 909 151 86 69 55
281 911 149 80 63 48
282 911 150 81 65 50
281 905 153 93 70 48
280 906 152 83 65 48
281 907 153 88 68 47
283 905 154 88 65 49
283 906 154 86 65 48
281 909 152 90 73 58
283 908 153 86 68 53
282 910 153 80 63 49
283 910 154 79 62 46
284 904 157 114 75 57
285 904 158 115 80 51
285 907 157 87 69 50
287 904 159 93 69 52
287 906 158 82 64 50
284 910 154 79 63 46
284 909 156 81 62 43
284 910 156 83 64 49
285 911 157 85 66 50
287 909 158 88 68 51
286 911 158 85 67 49
272 912 133 73 62 53
273 913 133 64 54 45
272 914 132 73 61 54
273 915 132 73 59 53
274 913 134 61 51 44
274 914 134 67 57 51
272 916 133 67 57 49
272 918 134 67 57 52
274 916 135 63 52 50
274 918 135 59 46 43
275 912 137 72 59 49
275 913 138 72 58 46
275 916 137 67 53 48
275 919 136 62 52 49
276 913 139 68 55 45
276 915 138 71 57 46
276 913 141 65 50 37
277 913 142 71 56 44
277 914 141 70 55 42
278 913 143 76 62 49
279 915 143 83 69 58
276 917 139 72 57 44
277 916 140 73 59 47
277 919 140 76 61 48
278 917 142 80 64 48
278 919 140 80 64 53
279 919 142 83 67 55
273 921 133 57 47 45
272 923 132 63 53 48
274 920 135 69 59 55
274 923 133 57 47 47
275 923 134 63 51 53
272 927 131 67 57 50
274 927 131 75 65 56
273 925 132 62 55 52
274 925 133 61 53 47
275 925 134 68 59 53
276 927 131 74 63 55
276 926 132 77 66 56
277 927 133 73 61 55
277 927 135 70 51 57
275 920 137 71 58 52
275 923 136 70 54 52
276 921 138 75 62 52
276 923 136 70 56 51
276 923 139 77 61 49
277 923 140 83 68 56
279 920 141 81 63 50
278 922 141 81 64 48
276 924 136 75 61 53
277 925 137 83 66 54
277 925 139 83 67 55
277 926 139 81 65 56
278 927 138 83 66 54
278 924 141 78 62 48
279 924 142 80 62 48
279 927 140 75 60 46
280 920 143 74 58 47
281 922 143 82 64 51
280 925 143 87 67 51
280 926 142 84 65 48
281 927 143 94 74 54
278 913 144 77 62 51
278 914 144 79 64 53
279 916 144 78 65 55
281 913 147 74 60 49
281 914 147 73 58 45
281 912 149 80 64 49
282 912 149 82 66 52
282 913 151 74 58 43
283 915 149 77 61 48
283 915 150 72 56 43
280 917 145 73 59 44
281 917 146 74 58 40
281 919 145 76 60 45
282 919 145 79 63 47
283 919 147 84 68 52
283 917 148 80 64 51
283 917 151 69 53 45
283 919 149 73 57 43
284 918 151 66 51 44
283 912 153 75 60 46
283 915 152 68 53 41
284 913 155 85 68 56
284 914 155 81 65 51
284 912 156 86 69 55
285 912 158 77 58 43
285 915 157 63 49 38
286 913 158 73 56 44
286 915 159 67 53 42
284 916 154 78 63 45
285 917 155 73 58 43
285 918 153 76 59 45
285 919 155 77 63 48
285 918 156 62 46 38
286 916 158 66 53 42
286 919 156 65 51 39
286 919 159 66 54 42
281 923 144 87 68 51
283 920 147 85 68 52
282 923 144 89 71 52
283 922 147 82 65 51
281 924 144 91 72 54
282 925 145 96 76 58
283 925 146 88 70 54
282 927 145 98 78 58
283 927 146 80 62 44
284 920 148 77 61 47
284 920 151 56 44 36
284 923 148 74 58 44
284 923 151 53 40 32
284 925 148 66 55 46
284 925 151 53 44 37
284 927 148 54 40 33
284 927 151 58 47 39
285 921 152 56 46 40
285 921 155 79 63 46
285 922 154 65 47 33
286 923 155 77 61 45
286 921 157 71 57 43
286 922 156 77 63 50
286 922 159 62 49 35
285 924 152 58 47 35
285 925 154 58 46 32
285 926 154 57 46 34
286 926 154 58 45 32
286 924 157 73 58 41
287 924 158 64 50 38
286 926 157 79 64 52
287 926 158 64 48 37
278 899 160 147 105 83
279 899 161 131 104 79
279 900 161 115 82 55
281 898 160 132 101 71
280 899 162 117 89 54
282 897 160 113 93 77
282 897 163 99 86 76
283 898 161 104 86 69
283 896 164 107 90 74
280 900 160 128 94 63
284 899 162 84 65 45
284 896 167 92 77 65
284 898 165 103 82 72
284 898 166 108 89 79
286 899 167 73 59 47
285 901 160 113 93 79
285 901 162 83 65 57
286 902 160 95 71 56
286 902 162 100 81 69
285 900 165 71 58 50
286 901 165 70 56 47
286 902 164 96 80 70
287 903 165 116 92 75
287 903 166 122 102 88
282 897 175 75 60 44
283 898 175 75 59 45
285 896 169 86 73 61
285 897 170 84 71 58
285 898 170 84 70 57
286 898 170 81 68 54
284 896 173 72 59 46
284 898 173 74 61 48
284 898 174 74 59 44
286 899 172 72 61 49
286 901 169 64 52 41
286 901 171 61 51 43
287 903 168 121 104 93
285 900 173 67 53 44
285 901 175 66 53 39
287 901 172 56 48 41
287 903 173 68 59 52
287 903 175 63 52 42
287 904 163 130 99 81
279 896 190 125 94 63
282 897 177 76 62 47
283 897 178 82 66 49
283 898 177 73 60 45
283 898 179 78 63 48
283 897 181 92 74 56
283 900 177 74 61 49
284 896 182 98 77 56
284 898 181 90 73 58
284 898 183 90 72 55
286 899 183 85 69 53
285 901 176 67 54 40
285 900 179 73 61 49
286 901 179 72 61 51
287 903 176 66 55 46
287 902 179 76 60 48
285 901 180 73 62 51
286 900 182 89 74 60
287 901 182 95 77 60
287 903 180 77 60 45
282 896 186 120 96 71
283 897 187 113 89 63
280 896 190 119 91 58
282 896 189 110 84 54
282 896 190 107 82 53
283 897 191 103 78 52
284 897 186 108 85 59
285 898 187 105 82 56
287 899 185 81 63 43
287 899 186 86 68 47
284 897 191 100 74 46
286 898 188 104 80 54
287 899 189 97 75 47
287 899 190 99 73 45
287 900 187 86 68 44
286 912 160 78 62 48
287 913 161 77 63 50
286 914 161 72 57 45
287 914 162 78 63 50
286 916 160 68 54 40
287 917 161 70 57 45
286 918 160 67 55 42
287 919 161 64 51 42
287 916 164 71 54 43
286 921 160 58 46 35
287 920 162 67 51 45
287 922 161 64 50 41
287 923 162 65 53 46
287 924 161 70 56 47
287 926 161 70 55 44
257 928 135 53 44 35
257 931 135 62 51 42
258 930 135 65 53 39
257 932 135 62 50 37
257 934 135 68 54 38
259 929 136 87 70 53
257 935 136 82 66 48
259 933 136 88 70 51
259 934 137 82 65 46
261 928 136 72 56 44
261 930 136 62 48 36
263 928 136 66 53 40
263 930 136 74 58 40
261 933 137 50 37 31
262 932 137 60 49 36
263 933 137 75 60 44
263 935 136 82 63 45
256 937 136 65 48 32
256 939 137 76 60 45
258 937 136 86 70 50
258 938 137 87 70 51
256 940 137 72 56 40
256 943 137 82 65 45
258 941 137 87 71 54
258 942 138 74 57 39
260 937 137 44 33 29
261 938 137 67 53 39
262 937 137 80 60 44
262 939 137 82 61 41
260 940 138 63 49 40
260 943 138 73 57 45
263 940 138 81 62 42
263 943 138 75 57 42
264 930 135 83 64 45
267 929 132 77 61 47
267 929 134 74 60 50
266 931 135 69 54 40
265 934 135 67 52 41
267 932 135 73 59 49
267 934 134 71 58 51
268 928 131 74 57 48
269 931 129 63 52 47
269 931 131 67 54 45
270 928 130 65 52 45
268 928 132 74 58 44
269 932 130 60 49 44
270 932 130 57 45 41
271 933 131 53 43 38
268 933 133 62 47 40
269 934 132 56 44 39
269 935 134 62 50 44
271 935 132 48 40 37
265 931 136 76 57 42
264 934 136 75 57 40
265 937 135 69 53 44
267 937 135 69 54 42
269 936 134 57 47 42
270 937 134 58 49 43
270 938 135 66 56 48
265 937 136 69 54 43
265 939 136 66 51 37
267 938 136 65 49 37
264 940 138 68 51 36
265 942 138 66 50 38
267 940 137 67 52 40
266 942 138 69 56 44
270 939 136 66 54 44
269 940 136 71 57 47
269 942 137 72 57 47
270 941 136 70 56 47
270 942 137 67 53 44
271 942 138 58 47 38
256 945 138 92 75 57
257 946 138 84 67 50
259 945 138 69 56 44
259 947 139 77 58 39
257 949 139 87 69 50
258 948 138 83 67 50
258 950 139 83 62 43
260 944 138 75 59 44
260 946 138 77 58 36
262 944 138 86 67 51
263 945 139 65 53 39
260 948 139 94 75 55
261 950 139 84 60 38
261 950 140 77 56 36
262 950 140 70 53 39
257 952 139 90 71 51
256 954 141 106 83 62
258 953 140 99 75 46
258 955 141 113 88 62
259 957 139 94 69 45
257 957 141 125 99 71
257 958 141 130 102 76
256 959 143 122 94 64
259 956 140 98 72 45
259 958 140 93 66 38
260 954 140 89 66 46
262 953 140 71 53 38
263 954 140 80 59 40
260 959 139 101 76 56
262 959 139 103 77 57
262 957 140 98 73 50
263 958 140 89 65 48
264 945 139 68 52 41
264 947 139 72 54 41
267 944 138 76 60 48
267 947 139 72 56 42
264 948 140 74 57 40
264 951 140 73 54 39
267 948 140 74 59 46
267 951 140 72 57 46
269 945 138 73 60 53
269 947 139 63 52 45
271 945 139 59 45 35
271 945 140 66 52 41
268 948 139 72 58 47
268 950 140 56 44 33
269 951 141 59 46 33
271 948 141 77 60 43
271 950 141 87 70 53
265 952 140 75 55 39
265 954 141 72 56 40
266 953 141 69 54 38
267 954 141 62 47 34
265 956 141 68 51 32
264 959 142 106 82 62
267 956 141 74 56 38
266 959 142 126 98 69
268 952 141 58 45 37
268 954 141 74 60 45
270 952 141 79 59 35
271 953 143 99 71 35
271 955 143 105 77 40
269 956 143 122 95 68
271 955 144 112 83 51
269 959 144 121 87 43
271 956 144 113 85 52
270 959 145 133 106 77
271 959 147 118 87 64
272 928 130 68 58 52
273 931 129 57 49 43
275 928 130 71 59 50
274 930 130 70 57 47
275 931 131 64 54 46
273 932 130 52 44 37
275 932 131 62 53 45
273 934 133 52 42 36
275 932 132 62 53 46
274 935 133 61 51 43
276 928 131 75 63 53
277 928 132 77 66 56
277 931 132 66 56 48
278 928 135 75 60 49
278 930 134 72 58 48
276 932 133 62 53 45
276 934 133 68 55 46
277 935 134 70 58 49
278 933 134 77 64 53
278 928 136 78 62 52
278 928 138 85 65 53
278 930 136 77 63 51
279 930 138 82 65 51
279 929 140 75 61 48
279 932 138 80 63 49
279 934 136 76 60 51
279 934 139 86 69 52
273 936 134 62 53 45
274 936 135 71 59 49
274 938 135 70 57 44
272 939 136 64 53 43
274 938 136 70 57 44
275 939 137 63 48 36
273 940 137 69 57 47
272 943 139 62 51 42
274 940 138 70 56 45
275 941 139 69 54 41
275 941 140 71 54 42
276 937 136 67 54 45
276 938 137 61 45 34
277 938 138 72 57 45
278 937 136 71 53 39
279 936 139 89 71 50
278 939 139 83 65 44
279 938 140 94 74 52
276 941 140 78 60 46
276 943 141 85 66 45
278 941 140 88 68 49
278 942 141 88 67 47
280 931 139 76 61 48
281 929 141 84 65 48
280 930 140 76 60 45
281 931 141 92 72 53
282 929 143 97 77 59
280 934 139 85 68 51
280 933 141 96 76 55
281 933 142 98 77 58
280 935 141 98 77 57
281 935 142 97 76 57
282 935 143 87 67 52
281 936 141 98 78 60
281 937 143 78 60 51
281 938 143 73 58 48
282 938 143 67 52 43
281 940 142 75 59 45
280 942 142 83 66 46
281 943 143 77 62 46
283 928 145 88 69 50
283 929 147 67 51 40
283 930 145 81 61 44
283 931 147 71 55 47
282 933 144 86 67 51
282 934 144 84 67 50
283 934 146 81 63 49
284 929 148 62 48 36
284 929 151 67 56 44
284 931 149 70 56 43
285 931 151 70 56 45
284 935 146 84 67 54
284 933 149 78 64 50
285 933 150 71 56 43
285 935 149 80 64 52
286 935 149 75 60 49
287 935 150 72 59 49
285 929 153 70 58 48
286 928 154 60 49 40
286 931 152 66 53 45
286 931 154 53 43 33
286 929 156 64 48 35
287 928 159 71 56 43
287 931 156 63 46 33
286 932 153 61 48 38
287 932 154 66 56 46
282 937 145 72 55 43
282 938 144 69 53 44
283 939 145 67 50 39
282 940 145 64 47 40
283 940 146 68 48 37
282 943 145 57 45 42
284 936 146 81 64 48
285 937 147 86 69 53
285 938 147 89 71 56
285 938 148 83 66 53
287 936 150 71 57 47
286 939 149 79 62 53
284 941 146 71 54 43
284 943 147 73 57 45
285 942 149 81 65 52
287 940 149 80 62 55
286 942 149 79 63 54
287 942 150 72 56 50
272 944 139 66 55 45
273 945 141 78 64 51
273 947 141 80 63 46
275 944 141 79 62 45
274 947 142 80 59 39
273 948 141 79 60 39
272 951 142 84 62 37
274 949 142 91 69 46
274 950 142 94 71 48
276 944 141 86 66 42
276 946 142 91 67 40
277 947 143 101 81 61
279 945 142 86 67 50
279 946 143 80 62 46
276 950 143 104 80 57
273 953 143 99 71 34
280 945 143 81 65 49
279 947 145 76 59 45
276 951 144 94 69 46
278 948 144 84 62 44
279 949 146 76 59 45
278 951 147 80 61 47
273 953 144 107 78 44
273 955 145 118 91 63
275 953 144 103 78 46
275 954 145 104 79 58
272 956 144 123 94 62
273 956 146 109 80 53
272 959 147 111 83 63
274 957 147 98 70 53
273 959 148 100 72 48
274 959 149 108 80 55
276 952 145 91 67 48
277 953 146 88 68 55
278 952 146 86 68 55
277 955 148 100 77 56
279 953 148 98 77 58
279 954 149 102 77 53
276 956 149 109 85 67
277 957 149 108 82 63
276 959 151 108 79 55
278 956 150 105 78 53
279 957 151 107 81 59
278 959 152 104 75 58
281 944 144 72 57 45
280 947 145 73 56 41
281 947 147 70 54 43
283 944 147 66 50 39
282 946 147 67 54 45
282 947 148 75 59 49
280 948 146 72 55 42
280 950 147 76 57 49
280 951 148 85 66 52
281 951 150 101 80 63
283 949 149 90 73 58
282 951 150 97 75 58
284 944 147 74 56 45
285 944 149 84 67 53
284 947 149 91 74 60
285 947 151 78 61 50
286 946 151 77 62 53
285 948 151 81 64 51
287 944 152 72 59 50
286 947 152 73 58 46
287 947 154 73 57 49
285 950 152 86 67 53
286 949 152 78 61 46
287 949 154 81 63 48
286 951 154 92 73 56
287 951 156 92 72 55
281 953 150 101 78 56
280 955 151 105 79 60
282 953 151 99 76 56
283 952 152 98 78 59
283 954 153 97 76 59
280 957 152 91 60 45
280 958 153 97 71 54
281 959 154 117 94 72
283 956 153 100 79 58
283 957 155 107 85 64
282 959 156 111 89 69
284 952 153 93 71 54
284 954 153 92 72 54
285 955 154 93 72 56
286 953 154 89 67 50
286 953 156 97 76 58
286 954 156 100 79 64
287 954 158 89 72 59
284 957 155 104 85 66
285 956 156 90 68 54
284 958 157 82 61 47
285 958 159 84 65 52
286 956 159 85 67 55
286 958 159 83 64 51
287 956 161 86 69 54
286 958 161 83 66 52
287 958 162 92 69 50
287 959 165 136 114 92
289 907 159 80 64 51
289 909 159 80 60 44
288 903 171 100 82 64
288 904 161 97 68 48
288 904 163 113 79 60
288 906 160 88 67 54
290 906 160 76 60 46
290 906 162 91 66 47
291 907 163 98 74 56
288 904 166 121 94 73
290 905 165 110 75 52
291 906 165 121 84 60
291 906 166 142 90 61
288 910 160 87 68 52
289 911 161 76 56 46
290 908 160 78 62 49
291 909 161 77 61 46
290 910 161 74 57 45
291 910 163 78 61 47
291 908 166 116 74 51
290 911 165 65 47 37
291 911 166 68 50 34
292 910 166 86 61 43
289 905 168 132 103 85
289 904 171 107 85 68
290 905 170 126 98 84
291 906 169 125 74 40
291 906 171 126 83 50
289 904 173 76 62 54
290 905 173 101 83 70
290 905 175 78 56 49
291 906 174 124 92 65
292 906 173 146 99 63
292 907 174 150 97 66
292 909 169 125 82 57
292 910 168 113 76 53
292 911 170 117 82 62
292 908 172 155 103 78
292 908 174 155 102 73
293 909 175 160 115 86
293 910 174 164 133 101
288 903 176 68 56 48
288 902 181 86 65 47
288 902 183 85 67 51
290 903 183 84 67 48
288 900 186 81 60 42
289 901 187 84 61 36
289 902 187 86 62 34
290 902 187 88 61 27
289 901 188 90 65 36
288 901 191 147 102 81
289 902 190 151 102 82
290 903 189 154 106 86
289 904 177 70 56 52
290 905 176 79 55 47
291 906 177 95 72 54
289 904 180 77 63 47
290 905 180 74 58 41
290 905 183 83 69 53
291 906 181 72 57 43
292 907 178 122 91 72
292 906 183 74 61 51
293 908 176 161 109 80
293 908 179 126 98 81
294 910 176 153 126 93
295 911 177 161 133 105
295 911 178 163 137 111
293 908 183 67 55 41
294 909 182 154 116 71
294 910 181 152 116 81
291 904 185 92 73 53
291 904 187 120 80 51
291 906 186 111 79 52
291 904 189 165 110 88
290 905 190 167 101 79
290 906 190 157 93 72
291 907 191 158 106 90
288 911 191 144 92 72
291 908 190 152 104 83
290 911 191 132 76 59
292 907 184 83 68 54
292 906 187 142 97 74
292 906 189 155 91 72
293 908 185 74 62 48
294 908 185 74 62 46
294 909 186 93 72 47
292 908 188 149 94 70
293 909 189 145 87 64
292 910 191 138 87 65
293 911 191 132 96 68
295 910 188 122 86 68
295 911 190 126 84 62
303 903 176 148 126 106
303 903 179 155 130 106
296 911 179 155 127 98
296 909 182 149 120 90
296 910 181 157 126 94
298 909 181 153 125 96
299 909 182 157 128 98
299 911 182 157 129 101
303 905 179 139 115 94
301 906 182 156 130 104
303 904 181 165 140 117
303 905 182 161 136 112
303 907 180 145 122 101
301 908 181 160 132 105
300 910 182 150 123 96
301 911 183 153 128 102
303 909 181 149 122 97
302 910 183 157 132 107
296 909 185 119 100 81
297 909 186 128 105 81
297 910 187 130 108 85
299 908 185 127 102 85
298 910 187 135 111 86
296 910 188 113 90 68
300 907 184 160 136 114
302 906 184 161 137 114
300 909 185 149 123 96
301 910 184 147 123 98
300 911 186 142 115 93
303 908 184 152 125 98
288 912 163 71 53 44
289 912 165 67 52 44
288 915 164 77 59 47
289 915 167 78 58 45
290 913 167 81 61 42
290 914 167 83 62 48
288 917 165 74 58 44
289 917 166 77 59 42
288 919 165 75 60 45
289 919 166 78 62 46
290 915 169 81 64 49
291 915 170 82 66 54
289 919 168 83 66 50
290 917 169 85 68 50
291 917 170 86 71 56
290 919 170 93 75 59
291 918 172 90 72 53
292 913 168 75 56 38
293 912 171 120 88 68
292 915 170 82 65 52
293 913 172 116 88 68
293 915 172 80 64 49
294 912 175 145 106 77
294 915 173 104 83 63
295 914 175 117 92 65
292 917 172 87 71 56
293 917 174 84 67 53
293 918 174 93 76 61
294 917 174 87 70 56
294 919 175 93 75 61
288 921 165 70 54 47
288 922 164 66 52 44
288 923 166 69 55 45
288 924 162 65 52 45
288 927 160 71 55 45
288 927 163 70 53 46
289 925 165 72 56 48
289 925 167 73 56 48
289 927 164 68 52 46
289 927 167 67 52 42
289 921 169 75 59 46
290 920 169 84 67 53
290 921 171 81 64 50
290 923 170 78 64 51
291 921 172 84 67 53
291 922 173 85 68 56
289 925 168 69 55 46
290 924 171 76 61 49
290 927 168 70 55 45
290 927 171 74 61 52
291 925 172 76 61 46
291 926 173 77 61 47
291 927 174 76 63 50
292 921 174 93 75 57
292 923 174 84 67 53
292 924 174 79 64 50
295 912 177 145 113 86
295 915 176 117 96 74
295 919 176 91 74 60
292 912 191 130 82 62
291 927 176 80 66 54
293 923 177 89 74 60
295 920 177 88 73 59
294 923 177 89 74 60
295 923 179 91 76 61
293 924 176 86 69 55
293 925 179 95 78 62
292 926 178 89 72 56
294 924 178 99 82 67
293 927 180 93 75 57
294 926 180 95 79 63
295 926 182 98 81 64
296 913 178 123 98 75
296 915 177 112 92 72
298 914 179 117 96 75
298 912 181 149 120 89
299 912 182 166 137 107
299 915 180 120 99 79
297 916 178 115 96 78
296 919 177 92 76 60
298 916 178 117 97 76
299 917 179 119 100 81
299 919 179 109 91 73
300 913 183 160 130 102
300 914 182 137 107 81
301 915 183 133 105 80
300 917 180 120 101 82
300 918 180 124 107 91
302 916 182 127 99 75
303 917 183 125 99 78
303 919 180 102 84 67
299 912 187 138 111 88
297 912 189 135 108 80
297 912 190 133 105 76
298 913 188 136 110 86
299 914 188 158 131 110
298 914 191 136 109 82
299 916 190 140 100 73
300 913 185 154 126 97
300 912 186 150 122 100
301 915 185 145 118 88
301 915 186 135 111 85
300 915 189 141 104 85
302 917 184 128 101 76
302 917 186 109 85 69
302 918 186 109 86 68
303 919 187 124 96 75
301 917 189 97 76 68
300 918 190 93 63 54
301 919 191 105 94 85
303 919 189 113 94 75
296 920 177 88 73 60
297 921 178 84 68 54
297 922 179 91 75 61
299 920 179 102 85 70
297 923 180 91 74 58
299 922 180 91 74 61
296 924 181 96 80 64
296 926 182 100 83 68
297 927 183 95 75 58
299 924 182 105 85 70
300 920 179 111 92 74
300 922 180 97 79 65
300 923 182 105 86 70
302 921 180 98 81 68
303 921 182 110 89 69
303 922 182 115 95 75
301 924 183 112 89 70
299 926 184 103 80 65
299 927 187 106 79 63
303 920 186 147 112 88
302 923 185 122 93 73
302 923 187 154 113 82
303 920 189 138 114 93
303 920 191 133 111 89
302 923 189 165 121 96
303 922 190 159 126 99
300 925 184 107 84 68
301 924 186 131 100 78
300 926 186 112 81 61
301 926 187 126 88 69
301 925 188 147 106 79
300 926 188 132 95 70
300 926 191 166 120 98
302 924 190 165 119 92
311 899 165 103 88 75
311 899 166 102 87 74
311 900 167 102 87 75
305 899 175 138 113 94
307 899 174 139 117 98
305 900 174 139 117 99
304 903 175 136 114 95
306 901 173 132 113 96
306 902 173 123 105 89
307 903 174 116 101 87
309 898 170 117 98 82
311 897 168 110 93 78
310 898 168 105 89 76
310 898 171 119 99 83
308 898 172 120 101 85
309 898 173 123 103 87
309 899 174 123 101 85
311 899 172 107 90 79
309 900 170 107 91 77
309 902 171 105 91 77
310 901 168 104 89 75
310 902 169 103 89 76
310 903 170 105 91 79
309 900 175 127 105 89
309 903 172 109 95 82
311 901 172 109 98 89
311 902 172 102 92 83
310 903 175 99 87 75
307 904 173 114 99 86
307 905 174 114 97 83
311 904 169 103 90 79
311 904 171 107 94 82
309 904 172 108 94 82
309 906 173 107 94 82
309 907 174 110 97 85
310 906 172 114 99 85
311 907 173 104 90 79
309 908 175 112 99 87
311 908 174 99 86 74
313 898 163 101 87 76
315 898 163 101 87 76
313 896 165 104 89 76
313 897 167 104 89 76
313 899 164 103 90 77
314 896 164 104 89 75
314 897 166 104 88 76
314 898 166 103 89 77
312 900 166 104 89 76
313 901 166 105 91 79
312 898 168 104 88 76
313 899 169 103 88 75
313 900 168 104 91 78
312 900 171 104 89 78
312 903 169 104 91 80
312 902 172 106 93 81
312 905 171 103 90 79
312 904 174 104 92 82
312 907 173 100 87 75
313 907 174 101 87 75
313 908 174 100 87 75
314 908 175 98 85 72
304 900 176 159 133 109
305 900 177 158 134 110
305 901 179 160 138 117
306 900 176 140 116 96
306 901 178 157 136 116
307 902 179 150 128 108
305 902 180 160 135 111
307 903 180 152 129 108
309 900 176 133 111 93
309 902 176 142 121 103
308 903 179 148 127 108
304 904 176 129 110 92
305 905 177 124 104 86
304 907 178 142 121 101
306 906 176 121 102 86
304 904 181 164 139 115
305 905 182 149 126 105
305 906 182 152 128 105
306 905 181 152 129 106
307 906 181 130 106 84
307 907 182 125 102 84
306 908 177 122 102 86
306 909 178 123 103 85
307 910 179 124 105 88
305 909 180 131 109 88
305 909 183 127 102 78
304 910 182 126 100 81
305 911 183 119 97 79
307 909 183 104 86 68
307 911 181 128 109 92
307 911 182 139 117 97
309 904 178 117 100 83
311 904 176 97 88 80
310 905 179 101 86 72
311 907 179 102 90 80
309 906 180 101 86 73
310 907 180 105 92 80
309 909 176 112 96 82
308 911 178 114 98 83
310 911 177 107 91 78
311 911 178 109 91 75
308 908 182 104 85 72
309 911 181 129 108 88
309 911 182 138 114 87
311 909 180 117 102 88
311 910 181 130 108 88
312 905 177 94 84 75
312 906 178 98 87 77
314 906 176 104 89 76
312 908 179 114 100 88
312 910 176 103 87 72
313 911 177 104 88 74
313 910 179 102 84 65
314 909 177 97 81 66
314 910 178 96 79 64
304 917 182 112 87 63
305 918 181 107 88 70
305 918 182 116 94 73
306 918 182 117 96 77
311 912 178 111 92 75
309 912 181 124 103 84
304 919 185 131 104 77
304 921 182 115 92 73
304 920 185 137 108 84
288 929 159 72 58 44
288 931 159 76 62 48
288 933 155 68 56 45
288 935 152 62 47 41
290 934 153 58 46 34
290 935 154 62 50 40
288 932 157 76 59 47
288 933 158 83 68 54
289 934 159 77 63 49
291 934 157 68 53 39
291 935 158 74 58 44
292 935 157 72 57 45
288 937 151 70 55 42
288 942 151 66 55 46
288 938 152 70 56 45
290 936 153 64 52 41
291 937 154 61 48 40
290 939 155 63 49 40
291 936 158 70 54 44
290 939 157 57 45 33
291 938 158 65 50 43
288 941 152 71 57 45
289 941 155 66 51 42
289 942 153 69 56 46
289 943 154 71 57 47
289 942 156 69 54 45
290 941 156 64 50 41
290 941 159 65 52 46
290 942 158 71 59 50
292 936 155 61 47 40
292 936 157 66 52 43
293 937 156 63 48 37
288 944 153 68 53 42
289 944 155 73 57 47
288 947 155 82 66 53
288 947 156 90 74 59
289 946 158 71 57 46
290 945 158 67 53 43
290 947 159 71 57 50
288 949 156 88 71 59
289 948 159 68 53 43
288 951 156 92 73 58
289 951 158 82 67 53
288 952 158 93 77 65
288 954 158 85 68 57
288 929 160 72 57 45
288 929 163 67 51 43
288 931 160 70 57 45
289 930 163 68 54 45
289 929 164 69 54 46
289 930 165 65 52 42
290 929 166 66 55 47
290 930 167 67 57 49
288 932 161 67 54 45
289 932 162 65 51 41
289 934 161 66 52 42
289 935 162 66 54 46
290 935 163 69 57 51
290 933 165 65 53 43
291 933 167 70 59 50
291 935 165 69 56 48
291 935 167 64 52 46
291 929 169 70 57 49
291 929 171 67 55 46
291 931 169 69 55 46
291 928 172 69 56 45
291 928 175 72 59 47
291 932 168 69 57 47
291 935 168 65 52 47
292 930 173 68 55 42
292 931 174 70 58 46
292 932 171 73 60 49
292 935 168 63 49 43
292 935 170 67 50 44
292 932 173 76 62 51
292 932 175 75 61 50
293 934 172 72 55 45
293 934 175 81 67 57
290 936 160 65 50 37
291 937 161 66 54 44
291 937 163 69 54 50
291 938 162 69 52 48
290 936 165 69 53 47
291 936 166 63 48 42
291 939 164 61 46 45
291 941 161 62 50 43
290 943 160 63 47 43
291 942 162 69 57 52
292 937 167 57 44 41
292 938 167 60 48 42
292 940 163 55 43 42
292 940 165 63 54 50
293 940 166 69 59 52
292 942 165 73 58 54
293 942 166 69 54 50
292 936 169 64 47 45
293 936 170 59 46 39
293 939 168 74 62 57
294 938 169 67 55 50
294 939 170 81 69 62
294 936 173 66 53 45
294 936 174 68 54 43
295 937 175 81 68 58
295 938 174 86 72 60
294 941 168 68 56 49
295 940 171 76 59 50
294 943 169 78 63 52
295 943 171 90 74 61
296 940 171 79 61 52
296 940 173 87 70 60
296 941 174 79 65 54
296 943 173 89 72 63
291 928 176 78 64 51
292 928 178 84 67 50
292 930 176 77 63 48
292 930 178 82 66 50
294 931 179 80 61 58
294 929 181 92 71 56
294 930 181 89 69 56
295 930 182 86 67 55
293 933 177 73 56 42
294 932 178 81 55 47
294 934 177 79 64 53
294 934 179 72 59 42
294 932 180 78 56 49
295 933 181 83 61 49
295 935 180 90 73 61
295 937 177 79 64 50
295 938 176 85 69 55
295 937 180 83 69 61
297 928 183 91 72 56
296 931 183 78 59 53
296 935 181 88 69 58
297 928 184 90 69 53
297 931 185 77 60 51
299 928 185 89 66 57
299 929 187 86 65 47
298 931 187 87 67 57
299 929 189 99 71 56
299 930 188 85 62 46
299 930 190 97 72 57
296 933 184 87 71 58
297 932 186 83 65 58
297 934 184 77 52 49
297 934 187 82 66 56
297 933 188 87 69 61
297 934 190 87 71 59
298 932 189 86 71 59
298 933 190 87 72 63
300 928 190 121 94 74
296 939 177 92 74 61
296 936 181 86 68 60
296 937 182 85 66 55
296 939 181 87 63 58
296 940 176 96 77 66
296 940 179 91 76 66
296 943 176 86 71 62
296 943 179 97 82 69
296 940 182 98 83 70
296 942 181 98 78 66
296 943 182 89 70 59
297 936 185 78 63 55
297 937 187 89 77 69
296 938 186 118 94 75
297 939 186 107 86 64
297 937 189 86 73 63
297 938 188 110 93 76
297 939 190 102 61 55
298 939 190 119 98 79
296 941 185 108 94 83
296 942 184 95 75 64
296 942 187 106 85 73
296 941 188 100 83 74
297 940 191 73 55 46
296 943 188 87 71 59
296 943 191 114 91 75
291 944 161 72 59 50
291 945 163 72 57 47
291 946 161 68 55 47
291 947 163 68 55 45
289 951 160 76 61 55
290 949 161 69 55 50
291 949 162 65 50 43
290 950 162 69 54 47
291 948 164 69 55 44
291 950 164 71 57 45
291 951 166 95 75 54
292 945 164 71 56 46
293 945 166 74 56 45
292 947 165 69 54 44
293 946 167 80 65 50
292 948 167 89 70 51
292 951 167 95 74 52
293 947 168 85 67 51
294 945 169 90 70 58
295 945 171 86 67 54
294 947 170 86 67 51
295 945 173 84 68 52
295 946 173 93 78 63
295 947 175 81 63 51
293 949 168 90 70 53
293 949 171 104 84 69
293 950 169 107 88 70
293 951 171 92 70 53
294 948 172 98 79 64
294 949 174 82 66 54
294 950 172 87 66 47
294 951 174 95 76 60
289 953 160 74 57 48
288 954 160 78 61 52
288 955 162 82 65 54
290 952 162 62 49 39
289 955 165 110 89 66
291 952 165 97 77 59
291 953 167 108 89 69
290 954 167 110 90 69
288 956 162 87 68 57
288 958 163 114 89 67
289 956 165 118 97 74
288 958 164 127 104 81
288 959 166 113 87 63
290 956 166 114 92 70
291 953 169 98 78 58
291 955 170 100 80 59
290 956 169 102 80 62
291 957 169 111 87 64
290 958 168 115 92 72
291 958 171 109 85 61
292 952 168 105 85 65
292 953 170 94 74 59
292 954 170 101 83 68
293 952 173 98 79 60
293 954 172 104 85 67
293 955 174 88 65 39
294 953 175 101 82 63
292 956 171 110 87 64
292 957 173 103 79 55
292 958 172 105 82 55
293 958 174 105 84 63
294 957 175 104 83 65
296 945 173 86 70 54
296 946 175 101 86 72
295 947 179 95 81 67
295 948 178 95 80 66
295 950 176 98 81 66
295 950 179 98 80 63
295 949 181 93 76 62
294 952 176 101 82 63
295 952 178 89 70 53
294 955 176 92 74 56
295 955 178 95 74 57
294 956 176 102 83 64
295 957 178 98 74 52
295 958 178 110 88 65
290 958 191 107 91 77
291 959 190 97 80 64
295 955 191 98 76 53
295 959 186 102 78 55
292 957 191 98 78 56
292 959 188 114 92 70
292 958 190 104 84 65
294 956 190 106 86 65
294 958 189 110 89 67
296 945 177 101 86 71
296 946 176 98 81 66
296 947 179 88 72 57
296 944 182 102 85 73
296 946 181 95 77 64
296 947 182 92 72 62
296 948 182 89 73 61
296 951 181 83 67 51
296 944 184 99 83 73
296 944 187 89 74 65
296 947 184 95 76 66
296 947 187 90 68 54
296 944 190 110 90 76
296 946 189 108 89 69
296 947 190 105 87 71
296 949 185 87 67 54
296 950 184 89 67 55
296 950 187 111 91 71
296 949 188 110 88 66
296 949 191 108 85 62
296 950 190 108 86 60
296 955 179 93 70 45
296 952 183 92 72 54
296 955 180 100 78 53
296 955 183 121 97 68
296 958 178 121 97 72
296 956 181 122 100 78
296 956 183 128 103 76
296 958 180 132 106 78
297 959 181 135 109 80
296 952 184 102 81 60
296 952 187 121 97 71
296 955 184 127 102 74
296 955 187 126 103 78
296 952 190 114 94 73
296 954 189 111 88 65
296 955 190 100 77 59
297 956 185 133 107 80
296 957 186 111 84 54
297 958 184 124 97 66
296 956 188 103 78 53
279 896 193 104 74 40
279 896 202 152 116 85
279 897 204 153 116 83
279 897 207 152 115 83
279 899 207 151 112 81
281 896 192 103 76 46
281 896 195 102 74 36
283 897 192 98 73 45
283 897 194 113 84 55
280 896 197 117 84 46
280 896 199 146 116 83
280 898 199 147 113 82
282 897 196 136 104 72
283 899 196 159 118 90
281 901 199 152 114 86
282 901 199 152 112 88
282 902 199 146 105 77
284 897 192 96 69 35
284 898 194 128 93 66
285 899 195 160 114 88
287 899 192 121 83 54
287 900 192 140 98 73
287 900 194 160 113 88
287 903 195 165 122 92
285 900 196 163 116 90
285 902 197 150 111 78
286 902 196 156 116 84
280 897 200 149 118 85
280 898 200 151 116 85
280 898 202 152 117 86
280 898 204 152 115 83
280 900 201 153 115 84
280 900 202 154 117 86
281 901 202 155 116 85
281 902 202 155 116 85
282 903 200 147 105 71
280 901 205 152 111 82
280 902 205 153 111 83
280 902 206 150 107 78
283 904 199 161 121 89
287 904 195 163 119 88
286 907 195 156 103 85
285 905 197 161 105 80
285 906 197 155 95 78
284 907 198 132 69 50
286 905 197 166 116 87
285 909 194 154 102 86
285 911 195 138 85 70
287 909 193 153 104 85
286 911 193 151 102 82
284 909 197 136 81 64
284 908 199 157 113 90
284 911 197 131 75 52
284 910 199 166 123 92
281 905 203 159 120 91
282 905 201 156 111 84
282 905 203 159 120 89
283 907 201 164 122 89
281 904 204 157 116 89
280 904 207 150 108 78
281 906 204 160 122 89
281 906 206 152 110 81
282 907 204 161 122 92
282 908 202 168 128 98
283 909 202 167 128 97
282 910 202 165 126 97
281 908 205 155 114 87
281 909 207 150 107 80
282 908 204 157 116 87
282 910 205 150 111 86
284 910 200 167 125 91
279 897 209 155 112 85
279 897 210 155 112 85
278 898 210 151 108 79
279 899 211 150 107 79
277 898 215 151 107 79
278 897 214 150 108 75
278 898 214 150 106 75
279 900 209 151 109 81
279 900 211 148 106 77
279 903 208 150 106 78
279 903 211 149 108 79
278 900 214 148 105 76
278 902 213 149 108 77
278 902 214 149 107 76
275 897 223 150 109 82
276 896 218 151 109 81
277 897 219 149 108 79
277 898 218 147 106 75
276 896 221 148 107 77
276 897 222 150 108 83
277 898 220 148 107 78
276 899 222 151 106 82
277 900 218 148 109 77
277 902 218 149 107 78
278 901 216 149 107 80
278 903 217 151 107 80
277 901 220 151 109 80
276 901 223 157 113 85
277 903 221 156 111 83
277 903 222 157 113 85
279 905 210 149 107 76
279 905 212 148 108 76
279 904 214 150 109 77
279 907 212 148 107 77
279 907 214 150 108 79
279 909 214 149 106 79
277 904 219 156 112 86
278 905 217 155 112 85
278 906 217 154 110 80
278 906 219 156 114 81
277 905 220 157 113 85
277 904 223 161 115 87
277 907 221 161 118 89
278 906 220 159 117 88
279 908 216 153 111 83
278 908 219 159 117 88
279 911 216 157 114 85
278 911 219 162 118 90
277 908 223 165 122 92
277 911 223 169 125 94
278 909 222 165 120 90
278 910 222 167 123 92
280 904 209 150 108 79
280 906 209 149 105 77
280 906 211 148 107 77
280 909 209 150 108 80
280 908 211 150 109 80
281 911 208 139 97 70
280 911 211 147 107 79
280 909 212 149 108 81
280 911 212 146 106 77
280 911 215 149 106 77
287 912 192 146 96 79
286 913 194 134 83 67
287 914 195 117 74 53
284 912 198 140 90 63
285 913 199 133 90 66
286 914 196 120 75 55
287 915 197 110 77 55
286 916 199 98 70 41
283 913 201 146 105 80
283 913 202 138 100 73
283 915 203 109 81 59
282 912 204 144 106 83
282 913 206 126 92 69
283 915 204 110 80 60
282 915 207 116 85 63
282 916 206 107 75 54
283 917 207 97 68 50
284 912 201 154 111 86
284 915 201 113 79 56
284 915 202 108 79 54
284 916 203 100 72 50
285 918 202 96 72 53
286 917 200 97 75 46
287 918 200 104 79 60
286 919 202 99 73 56
284 917 205 93 64 48
285 919 204 95 66 51
285 919 206 94 72 57
287 920 203 93 71 45
287 923 203 95 71 52
285 920 206 91 70 53
285 923 206 86 70 54
286 921 205 96 75 56
287 923 204 91 69 55
285 925 207 79 62 43
287 925 205 85 65 50
287 926 205 94 76 61
287 927 206 94 76 60
279 913 216 158 115 86
279 913 218 163 120 90
278 914 219 169 125 97
279 915 219 168 123 98
277 915 223 178 132 103
278 912 222 171 125 94
278 915 221 174 127 99
279 917 216 152 109 85
279 916 219 168 124 99
279 919 216 144 105 82
279 919 218 156 117 89
277 919 221 175 131 100
277 919 223 178 132 103
278 916 222 176 130 101
278 919 221 173 129 99
278 920 219 162 122 95
279 922 217 136 103 80
279 923 218 140 106 82
277 920 222 174 131 99
277 923 221 167 126 98
278 920 220 169 128 100
279 924 217 122 92 74
279 925 218 128 97 72
279 926 218 121 92 67
277 925 221 160 121 92
277 926 221 156 119 89
277 927 222 154 118 87
278 927 220 142 111 81
280 912 211 144 106 77
281 914 208 121 83 60
281 914 211 138 101 75
280 912 212 143 104 74
280 912 214 142 102 71
280 915 213 136 99 73
280 914 215 146 103 73
281 917 210 111 82 65
282 916 209 115 87 68
282 918 208 96 71 54
283 919 209 88 65 42
281 916 213 131 95 73
280 917 214 134 98 77
281 919 213 110 85 68
281 918 214 125 90 70
280 917 216 148 107 84
283 921 209 88 65 44
283 920 210 91 70 50
283 922 210 90 69 53
281 921 212 96 73 56
280 921 215 118 90 70
281 923 213 93 71 58
281 923 215 102 78 62
283 924 210 85 65 49
281 924 214 95 71 57
281 927 215 95 73 51
283 925 212 88 70 53
283 926 213 86 68 48
282 927 214 88 68 48
284 921 209 84 60 37
285 923 208 90 75 62
285 924 209 90 75 59
284 925 211 88 71 55
284 926 210 84 68 52
285 927 210 81 62 50
280 920 216 133 98 75
280 924 217 116 91 71
280 927 216 102 81 59
256 896 237 188 141 114
256 898 237 190 144 120
258 897 236 187 143 114
259 898 236 187 141 113
257 901 236 186 138 114
257 903 236 179 134 111
258 902 236 183 135 112
261 897 235 186 138 111
262 896 235 184 137 110
262 899 235 186 135 111
260 896 236 185 135 109
260 901 235 185 138 109
261 903 235 184 138 110
263 901 234 187 137 109
263 902 235 187 137 111
260 903 236 183 138 109
257 904 237 171 128 103
257 907 237 154 120 93
259 905 236 174 132 103
259 907 236 162 126 100
256 908 238 148 113 92
257 910 238 135 103 88
259 909 237 149 118 94
258 911 238 121 88 79
262 905 235 182 138 111
263 907 235 175 130 106
260 906 236 170 129 104
262 907 236 172 129 107
260 908 236 157 122 98
261 909 236 156 124 97
261 911 236 150 117 100
263 909 236 166 126 101
268 896 231 165 125 93
269 898 231 171 129 101
271 897 229 160 118 85
270 898 230 169 126 98
271 899 230 168 124 93
271 901 229 175 131 103
271 900 230 172 129 98
271 902 230 181 136 108
264 897 234 181 136 107
265 898 234 180 135 105
267 896 233 172 129 101
267 898 232 176 131 104
264 901 234 186 137 109
265 902 234 186 138 112
267 900 233 184 139 112
267 902 233 186 139 112
268 897 232 172 128 101
269 901 232 182 139 110
269 903 232 185 140 111
271 905 230 185 142 114
271 906 231 187 141 114
271 908 230 186 138 114
271 910 231 178 137 103
264 905 235 186 139 115
265 906 234 183 138 111
266 904 234 188 140 114
266 906 234 185 139 112
264 909 235 171 131 105
264 910 235 166 128 104
267 908 233 180 138 109
267 909 234 176 137 109
267 910 234 172 136 107
269 904 232 185 141 110
269 907 232 184 139 113
268 909 233 177 140 107
268 911 233 172 132 107
270 908 232 184 139 112
256 912 239 105 81 73
256 914 239 80 71 68
258 912 238 113 88 81
258 914 239 101 90 87
259 916 239 46 43 39
260 913 238 109 79 77
261 914 238 75 38 45
262 913 236 118 75 67
262 914 237 76 40 39
262 915 238 77 63 53
262 916 239 109 94 82
263 918 239 140 114 87
271 916 231 165 130 99
265 912 235 145 103 85
267 912 234 158 118 95
267 914 234 144 118 90
265 913 236 128 105 79
265 915 236 137 115 93
267 916 235 146 117 87
264 917 239 137 112 85
265 918 238 142 114 85
266 917 237 143 115 83
267 918 236 152 122 94
266 919 239 159 129 102
269 913 233 156 123 94
268 914 234 144 118 89
270 913 232 161 126 95
